ply
format ascii 1.0
element vertex 1289
property float x
property float y
property float z
property uchar red
property uchar green
property uchar blue
end_header
-0.196087 6.38799 -9.15801 126 193 20
-9.29445 10.021 -2.65755 30 220 94
1.11781 -9.37064 -6.39676 131 20 60
10.4415 2.24358 6.26411 220 134 181
-10.1899 -8.56563 -4.00712 20 38 86
4.94474 -4.40293 9.60537 172 68 220
-7.33883 8.53264 -10.0504 55 215 20
-8.76695 10.1444 -0.869466 38 220 107
-6.15945 -9.9734 9.91877 58 20 214
10.1031 2.44482 7.90194 220 134 197
-9.7345 -7.77426 0.637472 20 35 130
1.58994 0.535646 10.4347 132 125 220
1.75191 3.19575 -9.7787 129 160 20
3.65855 10.0922 8.71338 156 220 208
0.645576 -10.4299 -3.34787 127 20 82
10.4224 -3.08987 -8.1025 220 85 39
-9.44358 2.69176 -9.14099 20 149 27
1.66672 1.40333 9.83204 129 131 220
-5.53668 -0.323628 -10.0574 71 128 20
-4.87157 9.49087 -4.58795 77 220 69
0.298328 -9.83933 -7.73395 125 20 44
9.78129 3.5455 -0.265607 220 157 117
-10.057 -2.76504 -6.73917 20 88 59
-8.15972 -9.17912 9.74452 35 25 220
8.47076 5.06886 -10.3623 195 175 20
-0.742865 9.40009 -2.7894 109 220 90
5.99595 -9.89422 0.6151 187 20 123
9.96445 -2.22984 8.35257 220 100 206
-8.9369 7.7129 -3.17081 20 193 84
6.47683 2.24419 10.0687 177 146 220
3.64392 5.48914 -9.43284 148 173 20
-8.53539 8.75158 2.51594 34 220 137
3.63461 -9.58928 -0.0907844 151 20 130
10.064 -6.19934 -8.85399 220 46 24
-10.5316 8.45472 5.00105 20 194 170
4.57201 -2.18246 9.77976 163 97 220
-5.03482 3.29886 -9.96191 77 156 20
0.836696 10.0595 -1.98114 124 220 102
8.39576 -10.9755 2.72094 211 20 152
8.97794 -8.37483 -6.11964 220 27 59
-10.0222 1.7707 5.97934 20 136 182
-1.55693 -7.81395 10.6407 100 35 220
7.29943 -5.82138 -9.07934 191 60 20
-9.68677 10.528 7.70727 25 220 195
-8.65061 -10.3332 7.33459 37 20 185
9.82041 -3.99988 -0.554011 220 81 116
-9.82864 -8.94717 2.7938 20 34 150
2.46155 -4.63124 9.22431 145 71 220
-0.850876 9.31266 -10.3273 106 218 20
6.5808 9.87504 -4.66619 186 220 76
-1.66779 -9.51418 1.27226 99 20 131
10.1294 -9.40233 -0.389177 220 21 117
-10.4375 8.50868 -3.44741 20 207 77
-7.19921 -2.58625 11.0496 42 88 220
-8.05837 -8.05567 -9.70441 42 40 20
-2.48649 10.0078 1.2851 95 220 132
-5.51016 -10.09 4.61972 64 20 169
10.5522 7.06972 -0.296744 220 186 119
-10.1534 -4.44621 -0.625008 20 69 115
-10.1217 3.17831 10.3041 24 153 220
-9.65723 -1.47757 -9.56894 32 113 20
-0.299833 9.58404 -9.49958 126 220 27
3.81884 -9.46619 4.19527 157 20 169
10.124 0.398852 1.6858 220 124 138
-10.3519 -1.84 9.36776 20 98 211
6.00181 0.92459 10.055 170 122 220
3.07158 4.157 -10.4308 153 157 20
6.48284 10.4192 -7.07247 179 220 47
4.42613 -10.8177 -7.80904 164 20 42
9.56519 -4.93568 5.23289 220 74 168
-9.96078 -8.28082 5.01866 20 41 168
5.61156 -0.493913 9.71869 186 111 220
-9.82984 4.04348 -9.51348 26 162 20
-5.95779 9.56515 7.77766 60 220 192
4.19318 -8.95446 4.49342 154 20 166
9.70126 -0.357349 9.11334 220 120 212
-10.3027 -9.80031 -5.5876 20 24 68
9.26057 2.65787 9.32779 212 150 220
-8.85465 5.20437 -10.3957 37 173 20
-8.20664 9.69775 5.16682 35 220 169
-9.11825 -10.2049 7.17175 27 20 192
10.2317 -6.19761 5.15151 220 56 177
-10.7622 -8.02137 -4.96925 20 37 62
3.36879 2.16409 11.0242 153 132 220
-2.72519 2.46314 -9.7555 93 151 20
6.0813 10.0019 -8.32264 182 220 34
3.37826 -10.393 -3.58374 162 20 82
10.1645 6.14328 -4.80438 220 176 64
-10.1509 4.15186 5.59537 20 162 177
-2.36297 -0.594423 9.08428 104 109 220
-1.66645 7.98229 -9.64611 111 197 20
-9.53662 9.66332 10.6811 26 220 218
-6.96757 -10.1619 -2.34389 53 20 98
10.1249 3.63082 4.52179 220 155 160
-10.078 1.34428 6.24418 20 132 171
-3.28213 -1.45937 10.4794 90 112 220
-5.38463 -5.45196 -10.5642 66 68 20
0.290672 9.51105 -9.51567 130 220 28
-4.12116 -10.7076 -7.36731 79 20 41
10.5215 -5.08781 4.39916 220 63 162
-10.3538 -5.98765 2.17613 20 64 133
-1.85564 7.9255 10.0228 105 202 220
4.25868 -4.79047 -9.07918 156 69 20
-3.42009 9.9369 3.16034 80 220 158
3.62839 -9.60277 -3.08011 160 20 88
9.94337 9.47952 10.1228 220 211 211
-9.58938 -7.76283 -4.91786 20 28 78
0.24252 -9.08623 10.2344 123 30 220
-8.39659 8.40746 -10.5183 40 211 20
-3.81926 9.95775 -6.43626 70 220 56
-6.78071 -9.8247 5.44296 59 20 171
10.1819 -9.30563 1.92827 220 29 139
-9.70554 -0.801502 -2.55664 20 113 95
-3.09927 -7.10268 11.1101 89 50 220
-6.04107 -8.3438 -9.24969 54 39 20
6.05553 9.9956 -7.28213 185 220 47
-7.01206 -10.4371 1.95551 52 20 140
10.4701 2.1136 2.4631 220 135 153
-9.93384 7.65511 -7.65489 20 201 45
1.97601 9.67892 10.8575 137 218 220
3.11874 -9.28267 -10.6235 155 32 20
4.25035 10.0374 1.0707 158 220 129
-8.88146 -10.0159 8.83304 35 20 198
9.71749 -2.21057 -10.0476 220 97 21
-10.0572 -1.83183 -7.55703 20 98 43
-0.165243 -6.96493 10.0032 121 54 220
-3.50966 -8.43783 -9.73101 86 41 20
1.7804 10.1363 -9.2896 139 220 33
2.54228 -9.6685 7.04393 153 20 183
10.7543 -9.92075 -5.76774 220 20 58
-9.4915 4.90655 0.716302 20 175 132
7.55868 0.97758 9.70308 188 136 220
-6.21049 -5.48792 -9.83236 56 66 20
-3.68551 10.0817 5.292 83 220 174
2.76603 -10.5619 2.43763 151 20 137
9.84052 2.07635 5.49184 220 143 175
-9.68426 0.766712 6.22435 20 120 179
-2.20733 7.47615 9.97237 99 190 220
2.73477 3.95747 -10.1527 143 154 20
-1.05733 9.76589 7.13737 103 220 178
0.926234 -10.5141 -6.31937 134 20 56
9.87428 -9.11031 7.31287 220 21 195
-10.7887 5.48431 -2.68887 20 178 91
6.12601 -10.8846 9.3791 187 20 220
9.07539 0.988502 -10.3313 214 131 20
-5.95656 9.17921 -7.75093 56 220 33
-8.90067 -9.72075 -0.232586 39 20 120
10.5579 7.92928 8.54388 220 193 211
-10.2654 -3.52349 -5.79675 20 82 68
7.52919 -9.09728 9.95139 190 31 220
-2.49999 -5.87559 -10.5662 87 65 20
3.33121 10.1222 -5.05061 149 220 64
6.389 -9.92144 1.01819 179 20 130
10.9697 8.55492 7.66731 220 208 193
-10.7455 -7.08581 4.60427 20 52 161
-2.25936 -8.46075 10.441 95 34 220
5.96754 -0.404784 -10.007 178 130 20
-2.5351 10.5055 -10.3235 92 220 21
-0.451834 -9.42949 -2.81356 105 20 99
9.54704 1.63679 1.7504 220 144 133
-9.26162 9.35021 4.35629 20 214 161
3.89639 5.62699 10.7916 156 177 220
8.71571 -8.03528 -10.3593 201 37 20
7.05935 10.4179 8.11094 187 220 205
5.4813 -10.0506 -0.103875 186 20 115
11.0385 -9.19055 0.746016 220 31 119
-10.2471 -8.09239 6.99315 20 43 191
-4.58235 -3.33154 9.68909 71 89 220
-5.75338 -3.33368 -9.605 64 80 20
-8.38606 8.5884 8.8231 43 220 214
-5.13701 -9.96449 5.6711 65 20 169
10.8764 -6.16743 8.93019 220 61 205
-10.2665 -3.60227 1.92004 20 83 133
9.03389 1.53328 10.3491 217 134 220
-3.34901 6.54944 -9.94809 79 184 20
2.18822 9.64352 -8.10961 153 220 33
-7.11712 -9.47373 2.6445 47 20 150
9.84345 -9.54201 7.46538 220 23 188
-10.3686 -1.39501 5.6608 20 109 181
0.343237 3.17705 9.29886 129 158 220
-4.68711 -3.78845 -9.59414 66 81 20
-7.02669 10.2464 9.64352 45 220 216
-2.01063 -10.5681 -6.66697 103 20 51
9.83239 -0.141934 1.7015 220 116 131
-9.89789 -0.871196 -7.94995 20 104 35
-3.98521 -7.84423 9.95846 80 50 220
-7.41513 1.6471 -11.0912 37 134 20
3.10879 10.2742 8.13007 153 220 201
1.41363 -10.6714 5.3855 137 20 181
11.2913 2.22949 -8.94091 220 135 26
-10.1294 -1.39576 -7.72448 20 94 45
-0.0626548 2.12132 9.96224 120 143 220
2.19044 -10.1847 -9.96398 142 24 20
-5.78823 9.94327 8.39737 66 220 214
2.10749 -10.7127 9.90561 134 20 211
9.95348 -9.72008 9.16903 220 23 213
-9.72441 -0.982153 9.34424 20 109 216
9.19224 -4.8318 9.91221 213 76 220
-6.02248 4.96929 -8.97303 63 167 20
-3.25118 9.13764 5.03282 84 220 173
6.67759 -10.1699 6.83997 180 20 189
10.1636 8.72982 2.63713 220 212 145
-9.64631 7.87881 10.0162 20 201 215
-9.1032 9.62629 9.46254 24 214 220
6.68119 -6.87826 -9.63583 183 49 20
0.406143 10.7307 -0.50498 117 220 108
7.13718 -8.771 1.37278 186 20 125
9.66267 10.3583 -8.78008 220 216 35
-10.7477 -7.85616 -7.60392 20 38 56
-9.08255 -6.26306 9.49814 31 63 220
0.280466 -2.74589 -10.4791 128 90 20
9.09661 9.98187 -2.08057 214 220 92
10.2295 -10.1514 -1.25899 215 20 101
10.3387 5.035 -9.83207 220 173 23
-10.7679 -8.39202 1.05634 20 45 127
-0.442566 -0.390546 10.1244 115 117 220
-3.96554 -1.76121 -10.09 65 100 20
-5.51185 9.54032 6.28949 62 220 188
2.49301 -10.0327 -6.92827 148 20 47
9.66178 -10.3344 5.20327 220 24 174
-9.67483 -7.58355 -3.32188 20 47 85
8.88868 -6.45189 10.2139 200 45 220
-7.9267 -0.941879 -10.6042 40 105 20
9.99389 10.1566 2.611 214 220 149
-1.63472 -10.2297 -4.2315 97 20 73
11.2929 5.26894 7.46737 220 176 193
-9.84129 0.133856 4.24377 20 129 162
5.03513 -8.34143 9.57873 177 25 220
2.64373 -8.45731 -9.30458 141 40 20
-0.0382142 10.1828 0.911832 119 220 132
8.49689 -9.35581 4.32243 209 20 158
9.22842 -5.18121 -9.66125 220 70 23
-10.7756 1.28483 -2.14755 20 120 87
-0.0678088 -3.50213 10.3902 124 88 220
-0.216425 7.27054 -9.72167 117 195 20
8.66669 9.53236 4.68519 210 220 172
6.22521 -10.51 -0.375989 182 20 113
10.1867 -2.26237 1.63663 220 98 140
-9.97421 0.128051 2.0878 20 125 141
6.62397 -3.77186 9.80941 183 84 220
10.1355 -4.5167 -9.55251 219 79 20
0.65225 9.49237 -5.73682 122 220 59
5.2366 -10.3042 10.332 178 20 218
10.3194 2.76334 -7.17946 220 148 52
-9.7393 -6.42057 -6.05504 20 58 61
-6.67743 -6.80244 9.74209 60 53 220
6.11681 -0.818669 -9.89778 178 108 20
3.49643 10.0333 -0.300271 155 220 111
-4.77411 -10.1534 -5.10916 78 20 72
9.35066 -10.0783 5.85693 220 26 176
-10.1074 -3.67345 9.0094 20 84 204
-8.40892 -2.19743 8.67891 33 104 220
5.06163 6.48455 -9.93246 162 189 20
5.77772 9.69904 7.96896 174 220 193
-6.28744 -9.86339 -5.77367 52 20 59
10.643 7.02597 -1.11829 220 191 107
-9.78584 -6.32355 2.14635 20 64 137
6.48961 -9.1931 9.55095 194 22 220
-6.12537 -6.78282 -10.3237 60 54 20
9.7126 9.99444 2.11615 218 220 140
2.4435 -9.97323 -8.71209 144 20 33
11.1395 0.201657 3.71699 220 123 154
-8.88223 6.43516 9.12335 20 175 212
10.4055 -8.32158 9.27643 218 43 220
7.15847 2.08887 -9.84983 186 143 20
6.37758 9.38307 -6.78176 189 220 53
9.8908 -10.3653 -2.56075 213 20 82
9.51444 3.18027 10.3407 220 153 219
-9.04818 -7.40943 -1.24818 20 35 108
-7.06009 -5.8287 9.35642 49 63 220
7.16875 -6.05691 -9.31284 198 57 20
-8.166 10.5043 -0.578347 48 220 113
-5.33831 -10.1023 4.51609 58 20 156
9.31548 6.64263 2.2762 220 186 147
-9.98262 6.28315 -1.59273 20 177 97
3.4419 1.30927 10.246 152 138 220
-6.27548 -1.2127 -10.5214 62 102 20
7.79477 11.1527 -8.50283 195 220 39
-3.17094 -10.0666 2.35375 79 20 138
10.0481 0.355028 7.37888 220 118 189
-9.54018 0.469712 -5.25826 20 119 65
7.86466 -6.94175 10.0974 188 63 220
-9.35746 -1.56394 -10.546 20 108 20
0.648946 8.98954 -4.75546 119 220 70
2.42907 -10.0431 -5.01996 140 20 67
10.9782 -2.41874 4.34017 220 89 166
-9.74721 7.12536 1.80109 20 188 140
8.50641 9.16904 9.8505 206 215 220
4.669 -4.63383 -11.3329 165 72 20
2.62516 9.76295 9.34211 141 220 212
-3.58109 -10.8467 1.10048 81 20 134
10.2311 -1.36077 -1.48066 220 103 112
-10.0118 10.5255 -8.06478 20 218 42
-4.0604 9.56288 10.0626 78 208 220
-5.88971 -8.03079 -10.792 63 38 20
5.85179 9.61608 6.58414 179 220 188
-1.78452 -9.55983 -2.4871 102 20 94
9.62551 0.46908 7.05077 220 120 193
-10.0495 5.1573 -7.94104 20 181 40
-5.52367 4.19809 10.1827 63 164 220
-0.591236 -7.49879 -10.2458 112 44 20
2.93947 9.43589 -5.62431 143 220 65
-7.52588 -9.80377 -7.74962 50 20 44
9.88606 -2.79828 9.46567 220 94 206
-10.0794 4.64184 -7.67446 20 183 39
-6.90922 4.1004 9.86955 54 154 220
-7.62917 -1.75931 -10.9476 45 90 20
-9.06559 9.71097 -2.90262 37 220 78
-3.0856 -8.83318 -4.37357 87 20 76
9.37121 -1.05978 0.420623 220 103 119
-10.3027 3.4299 -6.72111 20 153 55
4.28064 -6.82586 10.1418 171 42 220
5.9637 6.21564 -9.7601 176 182 20
4.28671 9.31082 3.0181 166 220 155
-2.93427 -9.66083 -5.98659 90 20 64
9.42189 8.06322 -0.500682 220 198 115
-9.64356 -2.03349 -7.41896 20 98 45
4.82585 1.45391 8.90769 171 129 220
6.76486 -9.36307 -10.0627 186 23 20
-9.96589 10.3532 6.14087 20 220 181
-3.49409 -8.95798 2.64892 75 20 139
11.4928 -7.24099 2.49757 220 51 137
-8.79985 5.98039 -4.4985 20 170 75
-7.20303 -0.981939 10.2518 37 110 220
-5.6276 -6.74704 -10.1635 59 49 20
-5.63479 10.0249 5.03608 67 220 168
-7.86417 -9.46656 4.54187 44 20 160
9.09427 2.21094 6.50506 220 136 181
-10.3383 9.85106 -9.29576 20 218 34
8.90692 -3.29733 10.5543 203 81 220
1.14493 -6.58112 -11.0326 128 52 20
-7.84734 9.58505 3.82342 41 220 159
-2.94426 -10.7613 -1.71193 81 20 106
10.1933 3.06752 1.65765 220 141 133
-9.88745 7.38761 5.17804 20 191 175
5.02838 -1.24218 9.57716 168 103 220
-8.77449 -0.782304 -9.40621 34 119 20
-5.83576 9.7321 5.81288 71 220 178
-6.96407 -9.84112 -3.34671 49 20 83
9.44772 -4.63525 5.97306 220 73 178
-10.2364 1.96872 -7.14181 20 150 51
-4.75888 6.07322 10.073 76 178 220
6.30529 8.39523 -9.68923 179 202 20
-9.7477 9.93874 4.8159 31 220 171
8.3288 -10.6568 -2.34823 206 20 105
9.62777 -2.76837 7.59106 220 100 193
-9.72433 1.07551 3.39236 20 132 157
-1.09538 -1.17963 10.7867 113 103 220
-9.32153 8.73557 -10.253 28 211 20
-4.9364 9.51549 5.1673 73 220 173
5.36044 -9.55808 0.224838 170 20 126
9.86158 7.04632 7.17267 220 191 186
-9.15429 -1.00266 -8.96974 20 111 35
6.10904 -5.26365 9.58105 172 74 220
-1.30167 -5.59162 -10.5809 105 58 20
5.68543 10.3208 -5.80989 177 220 55
4.66597 -10.4401 5.11028 173 20 171
10.3313 7.40677 -1.81524 220 204 111
-9.92909 -8.59113 -6.91839 20 28 52
0.508488 6.78274 9.83695 115 189 220
-4.30032 2.48621 -10.3191 72 143 20
6.90262 8.8609 -2.25774 187 220 101
1.89616 -10.622 -2.19179 128 20 94
9.96675 9.10151 7.329 220 212 192
-9.30692 6.98187 5.00559 20 194 171
-2.06175 1.14963 10.0475 102 124 220
1.94624 9.99014 -9.9309 147 218 20
-10.6994 9.43418 -0.925753 20 220 109
5.33769 -10.4082 -6.52083 176 20 56
10.0395 4.20687 7.22704 220 160 192
-10.0964 2.69928 8.07605 20 148 191
0.127669 10.3297 10.0576 117 216 220
-6.01609 0.555339 -9.73169 61 129 20
0.883399 10.0861 -5.42523 129 220 70
4.08631 -10.2752 -8.05149 157 20 44
10.6419 -0.138405 -0.631429 220 124 108
-10.332 -6.60839 -7.50304 20 47 46
-6.67502 8.03257 9.9415 57 189 220
-6.58041 -6.85655 -9.27268 48 59 20
-9.49497 8.84227 3.15272 36 220 153
2.48319 -10.2512 -5.6006 138 20 63
9.77328 1.37829 4.83225 220 138 164
-10.7791 -8.76012 5.01318 20 37 164
-1.45376 7.00302 10.3956 105 192 220
-5.43345 -0.784149 -9.62275 63 115 20
5.0935 9.80616 3.0142 165 220 154
8.12609 -10.5409 -5.75128 209 20 53
9.38029 1.62236 -8.88727 220 132 30
-9.90976 3.76087 7.77748 20 158 198
-2.66148 -8.63143 9.47885 102 39 220
-2.14701 -0.566378 -10.1482 102 109 20
1.90615 11.1756 -4.24488 140 220 72
0.608496 -9.9542 0.423651 133 20 123
9.58505 4.90562 7.74959 220 161 196
-9.62211 2.80569 3.63784 20 152 158
-2.19831 -7.48406 10.6385 97 48 220
-3.83626 -4.66937 -10.5774 78 67 20
9.07123 9.55942 6.84714 211 220 182
-6.73814 -9.82754 4.02038 48 20 165
10.2814 10.2535 7.28094 220 219 193
-9.80236 8.81538 -5.36732 20 210 72
-10.3395 -5.86915 9.35294 22 59 220
-0.313509 -0.118011 -9.67953 116 115 20
0.393084 10.3089 -4.37083 120 220 79
-9.21568 -8.91358 -9.49845 26 20 25
9.54454 3.86235 0.882506 220 153 125
-9.4125 -5.47575 7.08494 20 58 184
-9.78969 -10.6639 9.93088 32 20 220
-5.449 -1.66965 -9.8011 56 105 20
7.4333 9.80376 7.95153 199 220 203
1.40427 -9.67032 -3.36219 129 20 81
9.58871 3.62589 -1.3223 220 156 104
-10.1921 -9.53409 -7.655 20 33 40
-6.53967 -4.7985 10.145 56 75 220
-2.70949 2.09171 -10.2847 93 134 20
-7.28679 10.4428 -8.00741 53 220 41
-6.21246 -10.4234 -7.20758 66 20 42
10.0726 -7.69722 2.67129 220 39 145
-10.4963 -1.99968 -1.4832 20 95 104
-5.12817 7.00609 10.7508 76 196 220
2.33019 5.21252 -9.58926 140 173 20
-1.61489 10.8577 -8.57572 111 220 28
-4.1369 -10.2927 -9.87971 85 20 28
10.3115 3.09008 -0.206704 220 142 114
-9.7322 -3.06849 -7.92667 20 80 41
10.0103 9.87178 9.28609 211 212 220
-5.3703 8.24311 -10.071 60 207 20
9.81211 9.42757 2.16379 214 220 144
-8.62601 -10.5408 -5.80987 31 20 58
9.26677 -6.94853 9.81343 220 50 218
-10.4182 8.92547 -3.02884 20 210 84
2.59947 -1.49155 10.3056 151 108 220
-0.740842 -8.89073 -10.1073 121 33 20
1.1123 10.2521 -3.33893 123 220 77
-7.67205 -9.23201 -1.6717 42 20 104
10.6219 2.70965 -9.3869 220 143 32
-9.83067 -4.8762 -6.83688 20 73 43
4.09704 -4.49966 9.04808 160 71 220
1.15765 -9.40412 -9.91636 128 26 20
-1.90249 10.1494 1.33039 104 220 129
1.2724 -9.70168 4.85884 131 20 159
9.8776 6.64124 2.98545 220 181 151
-10.3607 -8.7029 -3.04031 20 31 91
-3.04808 9.41322 9.884 84 219 220
2.96653 -9.76574 -10.3346 144 29 20
-2.34688 9.54023 4.6713 89 220 166
-2.63297 -9.99192 8.71059 97 20 210
9.54778 -9.87858 5.59765 220 22 180
-9.84258 -5.7023 -9.27015 20 64 29
0.886996 -1.25407 9.3455 127 109 220
8.27528 1.15199 -10.8032 198 133 20
6.45765 9.72184 4.17416 185 220 165
-2.40043 -9.81651 1.19754 91 20 136
10.4508 -6.06619 7.55801 220 59 176
-10.263 3.12018 -2.47698 20 146 98
-2.06502 -5.9985 9.06652 101 59 220
-4.22526 0.300957 -11.11 79 124 20
7.45476 9.39665 5.98264 195 220 188
8.50081 -10.8557 4.70992 198 20 153
9.9405 -7.26789 -7.37921 220 49 49
-9.51047 -8.91109 4.23366 20 25 169
-8.4834 0.0760643 9.43135 25 118 220
-5.62474 0.126459 -9.40438 59 121 20
1.05318 9.82459 8.77815 137 220 205
8.50233 -9.94828 -6.80663 210 20 59
10.2814 8.42428 -7.25255 220 197 47
-10.3114 2.65276 8.33972 20 142 207
-8.22343 5.00213 10.7767 43 168 220
-3.32292 -4.74744 -9.13629 85 76 20
-0.545905 9.76844 -2.95407 108 220 78
5.87419 -9.69818 5.20438 179 20 167
10.4481 1.74945 9.55628 220 137 213
-9.49463 -3.46775 -1.53858 20 91 109
-1.88837 5.57278 9.66007 106 187 220
9.10412 -5.12115 -10.2716 205 73 20
-7.2206 9.55363 -2.06069 38 220 99
-2.52531 -9.45297 -5.36488 96 20 64
9.43992 -0.690097 0.843626 220 115 125
-9.13072 3.35972 5.49081 20 152 175
6.4175 0.725892 8.89036 189 121 220
8.92502 -4.11115 -9.62732 209 85 20
4.30297 10.1335 4.00572 151 220 162
-6.84717 -9.64842 1.76516 47 20 145
9.73035 -2.66387 -7.37386 220 94 49
-9.70681 -1.52015 -2.9898 20 102 90
7.73065 4.02917 10.7492 194 161 220
5.98917 5.74049 -10.0048 174 171 20
-4.50463 9.59387 -2.61852 83 220 92
7.15582 -9.51915 5.54458 187 20 172
9.10388 0.259506 9.65965 220 125 217
-10.2779 1.15949 -3.08407 20 130 92
-1.13565 1.41674 9.69118 117 137 220
-5.36363 -7.00886 -10.5873 74 50 20
-1.48231 9.96919 -8.94003 106 220 37
2.76337 -10.6463 -7.60209 132 20 37
10.4659 0.981347 -9.48311 220 114 30
-9.84569 7.30915 6.7893 20 199 188
8.67388 0.598881 9.54843 205 129 220
8.71319 -1.81799 -10.111 203 101 20
-2.22941 9.94795 2.02316 99 220 143
5.16385 -10.1269 -0.324171 171 20 114
10.7939 -7.2968 -7.54124 220 45 42
-10.2549 7.11636 9.90359 20 186 212
-7.70853 5.67914 9.95872 45 179 220
8.28856 0.798246 -11.0065 219 121 20
6.48551 10.6371 8.70612 181 220 204
-4.74092 -10.141 -7.33587 72 20 55
10.3585 -0.269008 7.3279 220 115 197
-9.51584 5.83585 3.28261 20 181 151
-1.24976 9.77009 9.22067 111 209 220
-8.65864 -6.72405 -11.2496 40 61 20
6.65148 8.88515 4.6438 194 220 164
-2.34066 -11.0971 5.2573 92 20 174
10.2829 9.59839 4.18734 220 212 160
-9.14567 7.43329 -7.08014 20 186 49
-7.00755 -5.97294 9.65619 55 60 220
-8.07447 0.500683 -9.62975 45 119 20
2.66221 9.72082 -3.96542 144 220 80
-8.78475 -10.0475 3.69947 28 20 161
10.0541 -3.58288 6.62783 220 81 188
-10.0897 9.63037 -1.2391 20 216 116
-5.70408 -9.13426 10.1486 50 30 220
3.79568 5.73548 -10.702 161 181 20
4.80795 9.81558 -6.97752 175 220 43
6.88437 -9.98207 6.03798 196 20 185
9.83772 -4.51177 1.61744 220 72 130
-10.7525 6.68463 -4.93614 20 182 74
-8.9296 5.80701 9.95758 26 175 220
5.30869 1.43324 -10.1352 170 135 20
-7.27628 9.85243 -3.16403 47 220 91
9.06306 -9.99209 -0.814189 200 20 115
10.4777 9.41029 8.63339 220 217 200
-9.76137 8.55452 -9.27647 20 205 26
2.69387 -0.900612 10.2901 147 119 220
8.79287 -9.30046 -10.0963 205 28 20
0.889279 10.21 -5.65183 125 220 59
-0.188063 -9.92066 4.55581 120 20 156
10.7124 6.81123 -2.13746 220 191 110
-10.1486 8.90406 -3.29858 20 203 99
4.7574 -5.98599 9.62692 167 61 220
3.23854 3.59321 -10.76 162 159 20
-0.0279598 9.43492 7.16769 120 220 192
-4.91289 -9.79156 6.52939 67 20 183
9.57064 -1.43758 4.36946 220 112 164
-9.5541 -2.40696 -0.944105 20 99 104
3.63688 2.07951 9.18274 156 140 220
7.51062 6.73143 -10.1277 190 190 20
6.84823 9.99989 4.10197 175 220 151
-4.87341 -10.6477 5.56782 75 20 180
10.7409 6.90689 7.83086 220 190 199
-10.2085 -6.22645 3.05229 20 58 141
-8.69775 7.41382 9.88949 39 202 220
-8.05495 8.6316 -9.48441 35 203 20
5.2484 8.41152 0.0397508 167 220 120
-1.31522 -9.88198 9.28375 115 20 207
9.74454 -6.52663 4.45608 220 55 164
-9.57109 2.06257 -7.69227 20 144 40
-0.415018 -7.65838 10.0151 110 34 220
1.00468 -9.90045 -9.94052 128 21 20
8.18204 9.86294 1.45489 197 220 139
-5.52697 -10.0835 6.94308 62 20 185
9.94848 -3.84785 0.76676 220 93 127
-9.74808 8.15978 2.05557 20 202 138
3.47265 2.68404 8.99725 150 153 220
-2.27732 2.90814 -10.7964 96 140 20
7.80158 9.86445 8.31829 207 220 198
-6.97016 -9.31295 -2.62707 46 20 100
10.357 3.41391 -6.70048 220 148 60
-10.0024 -9.57407 -5.22623 20 25 64
1.62692 -7.72563 9.09428 136 48 220
1.0623 5.77544 -9.3114 133 183 20
-9.69621 9.92606 -9.49441 23 220 35
4.18455 -9.61301 -1.27225 173 20 104
9.79191 -7.91372 5.60778 220 44 176
-9.82337 8.16852 3.16237 20 208 154
1.59872 8.26448 9.54052 139 197 220
0.238862 -3.59683 -9.65067 118 86 20
-9.305 8.85165 9.78757 37 220 216
1.45035 -10.4936 9.71245 132 20 216
10.3407 -2.82391 -0.325944 220 89 113
-9.58436 -1.54055 -4.6813 20 108 68
5.54565 6.47955 9.6374 179 196 220
-7.5732 -2.12669 -10.4675 39 96 20
8.15587 11.1536 -0.388218 200 220 122
1.11161 -10.449 -8.77459 126 20 34
9.46435 -7.85733 4.56961 220 41 168
-9.67415 2.90512 -2.29207 20 145 96
5.25932 -7.046 9.80069 180 44 220
6.07317 -8.25832 -10.5653 181 34 20
9.06443 10.3153 6.21105 201 220 183
-2.27853 -9.43795 -10.0155 94 20 30
10.1119 3.42545 -2.78178 220 149 100
-9.96163 1.89354 -8.12971 20 139 40
-3.16414 -4.52383 8.81449 90 67 220
1.61343 3.40743 -10.5252 135 152 20
-4.9564 9.23061 9.48073 69 220 210
2.67201 -9.90863 1.06794 148 20 126
9.91995 -5.12716 -9.65136 220 58 21
-10.0376 1.56242 -8.23452 20 141 37
1.91549 -4.35943 10.4751 145 78 220
9.73626 7.91839 -9.28433 216 197 20
7.8313 9.51687 8.15948 191 220 198
3.33219 -9.8249 -6.09808 154 20 55
9.6266 -8.14953 0.0821389 220 43 114
-10.6718 -4.97771 -7.21852 20 69 48
-9.09603 -6.97568 10.2005 37 50 220
-5.89244 -4.18358 -10.5567 53 81 20
-9.92099 9.67737 0.11044 20 220 117
-8.37943 -9.66092 -6.17741 30 20 54
9.61163 -8.96888 -2.16269 220 25 107
-9.90551 -2.71161 -8.58118 20 94 33
-4.29045 5.71619 10.3749 81 178 220
6.80908 9.78044 -9.72855 190 214 20
5.74259 9.63709 -4.69922 179 220 78
-0.303206 -9.71377 -1.29987 120 20 111
10.2349 -5.73278 0.746891 220 62 133
-10.6748 7.19906 -6.64131 20 190 60
1.3941 -6.47831 10.2665 131 56 220
-0.0202969 -6.16138 -9.83862 114 56 20
4.94568 10.1672 7.17318 168 220 185
-6.78777 -9.90769 -5.7744 44 20 65
9.4693 2.84727 -7.52668 220 146 40
-9.85817 6.46406 -6.93669 20 185 54
7.91257 1.64698 10.358 194 133 220
-1.16772 -2.88812 -9.00967 106 90 20
-1.76302 10.1684 5.62739 101 220 175
-9.03952 -9.80726 4.71706 30 20 169
9.76025 3.76852 0.435581 220 158 123
-10.0058 3.73106 -9.182 20 148 23
-8.90354 0.273211 9.70411 23 130 220
-3.46244 -9.10906 -8.62595 83 22 20
-3.53256 9.36673 4.94409 85 220 167
6.42914 -9.44183 2.57181 182 20 141
9.25069 -0.395377 -0.931799 220 115 110
-10.2083 -0.381861 3.28091 20 121 152
-7.54101 -7.45959 10.1425 37 39 220
6.43023 3.82622 -9.88645 188 154 20
-6.84778 10.0217 -0.238144 55 220 114
0.187689 -10.7574 -5.18896 119 20 56
9.96386 4.09315 3.30501 220 154 150
-10.6901 9.17655 2.36461 20 216 136
8.46198 -1.81619 10.7434 208 104 220
-0.112468 -7.59639 -9.46273 121 40 20
-2.6239 9.82754 9.63833 89 220 215
-9.53726 -10.1946 -7.27683 22 20 53
9.57724 -1.23929 6.734 220 105 183
-9.46149 -10.0719 -4.0035 20 21 74
-0.74404 2.11703 9.64135 115 128 220
7.18579 -0.809064 -10.1642 198 113 20
4.5238 10.1939 -5.45326 159 220 59
9.48612 -9.44747 0.398176 211 20 118
9.71191 2.43518 5.02109 220 143 167
-9.89982 3.31668 -8.707 20 148 35
6.00419 2.01103 9.45354 180 142 220
-3.42312 -3.13713 -10.016 84 94 20
-6.88458 9.28681 -6.38291 57 220 52
-2.3635 -9.72791 7.89479 98 20 198
10.3529 -8.18108 1.83376 220 35 138
-10.1412 -6.85032 -2.53408 20 46 98
-8.60805 -9.83584 11.0113 45 21 220
-6.07447 6.29814 -10.9401 61 194 20
0.617202 10.3159 -8.3885 122 220 36
3.25701 -11.0757 2.82179 147 20 155
10.0074 3.37634 -0.750268 220 149 112
-10.4474 5.17723 2.2683 20 170 142
0.157032 9.47291 10.1248 126 218 220
7.08068 -4.48142 -9.66346 189 72 20
-3.02712 11.1879 -4.2705 96 220 76
2.49653 -8.55882 -4.23161 139 20 79
10.1714 -0.323615 1.62717 220 118 144
-9.70166 -0.637657 -1.39424 20 125 102
-1.77261 0.425559 9.79299 99 121 220
6.18178 -3.68602 -9.08074 186 80 20
7.44278 10.2549 3.53026 200 220 156
-6.06017 -10.796 -6.32089 61 20 55
9.54876 -5.94696 7.12516 220 68 194
-9.72639 -4.4825 -4.54202 20 71 68
-7.42224 6.38708 9.80893 45 187 220
5.13725 -0.732931 -9.23543 173 107 20
-1.82925 10.1429 -5.85435 99 220 66
-7.5397 -9.36804 -4.45269 49 20 80
9.91721 3.65658 -7.46032 220 155 40
-10.0002 -7.6772 -4.3878 20 45 74
7.32729 7.10068 9.79929 198 186 220
4.52921 -2.06282 -9.31057 162 105 20
-7.64214 10.6925 -6.27999 54 220 47
-6.20466 -8.93086 2.85181 54 20 152
10.0834 2.97499 -3.16234 220 140 86
-9.59117 4.22969 2.64116 20 157 149
-8.32937 6.48937 9.46296 27 194 220
-4.39285 -7.08124 -9.59787 86 45 20
-5.33963 10.3591 2.68519 68 220 146
-9.352 -10.1503 -9.05931 25 20 29
9.40285 -0.728926 5.57707 220 107 182
-9.7771 7.59512 4.25313 20 195 158
3.31975 5.49001 9.46184 140 176 220
0.374141 -3.46436 -9.78655 126 78 20
-4.81127 9.84387 2.29766 78 220 136
0.995174 -9.60616 8.9048 128 20 211
9.00762 4.31405 9.384 220 166 205
-10.6991 -3.87852 -8.62827 20 73 33
-5.81464 7.34376 9.90145 64 186 220
-7.34232 -7.9259 -9.49076 42 31 20
-8.09949 9.5216 4.81899 41 220 170
-7.76738 -9.34252 6.58322 42 20 188
10.4428 -6.93733 -1.53946 220 52 95
-10.1632 -2.99957 6.32961 20 90 191
5.58138 -1.09155 9.22359 171 117 220
8.06935 6.51958 -10.3055 197 185 20
-0.0455195 10.8938 -0.199719 117 220 115
-8.46858 -8.81915 0.842211 31 20 131
9.81078 1.16363 8.00642 220 127 196
-10.4399 -1.42414 5.43754 20 96 173
-3.39127 8.24471 9.85861 94 205 220
0.579725 -5.03966 -10.4736 138 74 20
-10.267 10.7721 -2.71922 20 220 89
-4.4316 -10.2823 5.27435 79 20 173
10.2363 -7.79377 2.56492 220 38 135
-9.87666 2.05631 10.963 20 138 216
-1.39322 6.60358 9.35792 104 183 220
-6.77854 2.66807 -10.408 57 161 20
5.09908 9.69296 4.30037 169 220 161
-7.42286 -9.66052 6.76557 45 20 191
9.71544 9.34099 1.9728 220 215 140
-9.98546 -8.12389 3.75718 20 37 153
2.31467 -5.38244 10.8032 142 58 220
-5.56422 -9.28696 -9.49498 63 27 20
-1.80518 10.148 2.72542 99 220 145
1.13661 -10.6971 7.97545 135 20 201
9.86154 -5.43052 -6.02046 220 64 54
-10.0842 -3.33327 -4.94272 20 88 68
7.53477 4.01173 10.1096 193 159 220
-3.31565 8.00865 -9.79925 89 201 20
0.744044 10.064 -6.24723 123 220 60
4.59947 -10.5047 -7.29248 165 20 46
10.2041 9.7342 -0.279265 220 210 118
-10.4822 -4.29196 -4.30938 20 70 83
2.33565 8.7579 9.59738 140 212 220
-5.51022 -5.81884 -10.0885 71 52 20
-7.54147 9.61789 2.95115 39 220 140
-2.96464 -10.2902 -3.51332 88 20 83
10.9119 9.91311 -6.37545 220 216 54
-10.0072 -5.66043 10.1917 20 66 206
4.4002 -5.00506 9.78235 168 64 220
7.27089 4.09343 -10.3158 192 162 20
0.234559 9.81474 -9.91149 122 220 26
-6.03201 -11.012 -8.14567 58 20 33
9.35327 7.84049 -7.24298 220 208 46
-9.69628 -0.051301 -1.60049 20 119 110
8.58336 4.00919 9.58898 211 167 220
-7.33907 2.78056 -9.36139 44 143 20
-4.42532 9.44336 9.1037 79 220 212
-2.01608 -10.3628 1.55774 99 20 126
9.67511 1.31814 -1.13994 220 135 118
-10.0605 8.98089 1.32986 20 218 137
-7.57902 2.2071 10.1116 47 134 220
7.04879 0.246604 -11.1961 181 119 20
-4.69116 9.83577 -0.462607 75 220 115
4.25959 -10.5809 -1.08415 169 20 114
10.2474 8.42632 -6.90571 220 204 46
-11.2252 8.26163 -8.39803 20 210 42
-5.37166 6.80774 10.0719 73 193 220
0.269547 -3.74461 -9.79736 124 90 20
4.28797 10.0809 1.62692 160 220 131
-0.397841 -9.73327 -7.94828 120 20 35
9.75386 0.240401 2.52983 220 115 143
-8.7928 6.38559 -8.19691 20 181 34
1.34632 3.12281 9.7614 140 153 220
4.64953 5.30974 -9.86169 166 187 20
9.28595 10.5286 1.99909 211 220 144
5.83926 -10.3138 -6.08255 175 20 67
9.51379 5.1355 0.447243 220 171 130
-9.96047 5.09814 3.84952 20 170 149
-0.813644 9.97139 9.07636 106 218 220
4.35619 -3.80231 -9.16418 164 80 20
1.0871 10.1227 -2.94776 121 220 95
-9.02095 -10.1415 -6.2074 31 20 62
9.77659 -6.78008 2.6661 220 58 150
-10.3342 3.43089 8.32368 20 155 207
-4.45115 -2.13802 9.79489 78 103 220
5.86517 3.25047 -10.2251 180 144 20
-8.26469 9.65872 3.11466 24 220 158
-2.3284 -9.81978 -6.30242 95 20 54
9.83082 8.95543 -1.615 220 210 112
-9.78754 -7.86923 2.44779 20 37 144
0.399776 7.73827 10.1895 115 198 220
2.51239 -9.23097 -10.1551 138 32 20
-5.9871 10.1131 -1.12794 57 220 107
-0.907866 -10.0797 -9.58677 101 20 29
9.64085 0.495871 -4.60709 220 128 78
-10.0671 2.72179 -6.9736 20 139 45
2.91871 -7.08205 10.2886 149 50 220
-5.98221 2.27612 -9.7608 58 146 20
-9.16053 9.53752 9.14869 30 220 209
-0.0557433 -8.51653 8.02676 133 20 201
10.2709 9.86218 -3.6853 220 219 81
-10.0962 8.00359 -8.24187 20 200 30
-4.35817 -9.57164 9.79416 77 23 220
2.03847 -8.22526 -9.40359 140 40 20
3.17439 10.6184 -3.14024 151 220 88
7.95525 -9.58272 6.07217 198 20 179
9.08697 5.07196 9.58875 220 167 209
-9.70444 -9.52513 7.23676 20 31 193
-0.0562497 6.8332 10.3208 116 196 220
6.44528 -2.46526 -10.2534 190 98 20
3.07045 10.5714 -9.40965 151 220 23
-1.14795 -9.78653 -2.39404 115 20 98
9.49353 -6.56663 3.83814 220 45 161
-9.7625 -8.09657 -7.98331 20 40 42
0.786822 -5.94341 9.86126 130 60 220
-0.845031 -3.00243 -9.08258 106 93 20
-4.01657 9.07093 1.11693 75 220 130
-3.13361 -9.94323 -9.10811 94 20 22
10.2742 0.941196 1.99947 220 130 137
-9.98824 0.372473 1.91999 20 118 141
-3.82296 1.20756 8.8991 78 130 220
-8.76102 -7.04903 -9.79537 29 49 20
0.770873 9.67538 4.62152 135 220 165
-5.18632 -9.34123 -2.9065 66 20 94
10.5353 4.01571 -8.92239 220 157 31
-9.92083 9.35242 4.43143 20 201 169
-8.07784 3.84663 9.75443 37 156 220
-6.52215 -8.42061 -9.2291 48 31 20
-9.18784 9.75144 -9.23006 26 220 32
-2.5735 -9.85952 -5.5989 92 20 64
9.3835 5.69195 -0.779533 220 175 112
-9.72194 7.27936 -3.89947 20 192 85
-5.4161 6.61704 10.2064 73 184 220
6.62204 0.257559 -10.129 186 124 20
4.8555 10.1803 -8.64279 180 220 20
-5.95863 -10.2887 -1.85547 57 20 109
10.3857 0.323596 -1.3648 220 121 107
-9.94009 -0.026132 -5.74989 20 118 59
2.13873 5.99984 9.96502 132 185 220
-1.85146 9.35727 -9.67898 101 214 20
-2.56749 9.86751 4.53461 96 220 162
2.44791 -9.71768 3.95174 144 20 150
9.81963 -7.17696 -1.01982 220 58 115
-9.42129 -4.28109 -9.7847 20 79 20
0.706133 3.51856 10.878 123 158 220
5.12024 -9.61829 -9.9971 168 27 20
0.641338 10.1879 -8.40374 127 220 43
3.06742 -9.51863 -10.956 155 20 20
9.54891 -1.83725 2.55144 220 96 147
-10.4096 8.22102 -5.91847 20 199 63
1.77702 7.88103 9.90765 129 205 220
4.74206 -4.93733 -10.5805 168 79 20
3.98935 10.8172 1.79298 159 220 145
-4.11529 -11.2153 -1.23065 71 20 107
10.8536 -7.6223 -7.89137 220 41 35
-9.30227 0.11502 3.93934 20 120 160
7.91684 1.83622 10.8217 203 130 220
2.76563 1.67369 -9.95426 147 134 20
1.43519 10.9014 -7.3346 137 220 47
-0.00258378 -10.2258 -0.53989 120 20 117
9.55073 2.41518 -6.72355 220 147 63
-10.6303 -2.9438 -5.32826 20 86 58
0.121769 3.24864 10.8195 123 149 220
9.32302 -9.23231 -9.1792 210 31 20
-4.04235 10.3886 3.99641 76 220 161
-5.09352 -10.0515 9.63185 63 20 219
9.5171 -1.34792 -9.15289 220 110 23
-10.0764 -4.38861 -4.52362 20 76 70
8.73591 -0.0962291 10.8612 215 126 220
3.97756 3.55409 -10.077 171 156 20
3.4293 10.1474 4.48595 149 220 163
-6.15078 -10.6572 7.29857 61 20 191
10.8404 -4.0367 -7.15493 220 73 53
-10.4466 -6.61776 9.63144 20 55 214
-6.19909 -4.79846 10.067 71 79 220
1.10174 -8.34334 -9.21011 129 31 20
-0.0806049 9.5722 -5.47226 113 220 69
-8.17061 -9.84513 0.456355 38 20 123
10.3782 -2.21859 -8.84848 220 93 22
-10.0774 -7.02954 -9.60319 20 52 28
0.550243 3.87749 10.5961 123 160 220
-3.37143 6.90238 -11.0792 92 188 20
-6.82718 10.0749 -4.47376 57 220 70
1.01242 -10.2241 -2.75041 126 20 91
9.66586 0.503425 9.89931 220 127 212
-10.0282 -0.55464 9.07649 20 116 206
-10.0841 -1.26502 9.81883 26 101 220
1.24261 -4.91865 -11.4636 136 69 20
1.74107 9.55407 -0.0931649 142 220 120
-7.81519 -10.1069 -7.98706 47 20 35
10.6783 7.07627 7.53844 220 187 197
-10.3246 -2.68504 -0.408222 20 89 112
3.32068 9.59718 10.5482 157 215 220
3.19419 1.22973 -9.53612 152 129 20
-1.22485 9.73514 -6.46977 111 220 62
6.8729 -9.20853 4.12512 183 20 164
10.1812 2.6411 -7.48793 220 142 46
-9.53885 0.929492 -2.84122 20 118 90
-10.569 8.16674 9.99738 24 204 220
1.14733 -9.07832 -10.0896 138 25 20
-8.75361 10.0787 -3.99143 32 220 84
-9.55743 -9.82477 -2.81909 26 20 92
9.45779 -3.31778 -6.00371 220 87 49
-8.68307 -7.85496 3.73879 20 46 153
0.425075 0.100852 9.58148 118 126 220
-8.53388 0.183672 -10.8213 39 121 20
-0.75631 11.0269 -0.0828052 106 220 118
-4.26722 -9.80835 -0.776167 78 20 111
10.0057 5.62696 -1.61074 220 174 103
-10.2442 1.15566 -1.96169 20 132 96
-5.62514 7.80034 10.6843 70 202 220
-0.510602 5.29659 -9.81341 112 169 20
9.32194 10.447 -4.73952 208 220 70
1.40118 -9.57044 -3.82478 127 20 90
10.4392 -9.54503 -7.79534 220 38 44
-9.00403 -7.26658 -7.85729 20 45 29
-5.30841 3.03663 10.2764 71 153 220
4.38867 -6.4194 -10.0135 163 55 20
0.955958 9.51304 -3.70671 133 220 94
1.03952 -10.2505 3.57459 124 20 161
9.51225 -5.34245 -5.89957 220 68 57
-9.18806 -6.66312 -3.81473 20 46 80
-9.53216 -4.81039 10.6221 24 74 220
-8.89282 -0.521771 -10.598 35 116 20
-0.626329 9.47795 2.65005 110 220 155
5.50163 -11.1417 -6.34509 174 20 57
9.97957 -5.32532 0.628032 220 55 127
-8.82693 -5.05912 -8.71989 20 64 34
0.634054 4.63369 10.0064 124 160 220
-1.17713 -0.568267 -10.4065 103 107 20
4.43938 10.4671 -4.46904 161 220 77
-6.58838 -9.68132 -7.07161 57 20 47
9.39291 6.09145 -2.27418e-05 220 177 123
-9.38598 4.96024 -1.96103 20 169 104
-4.68518 4.96591 10.6066 70 170 220
1.42094 0.354471 -9.92179 129 121 20
8.18984 9.95956 -8.80323 197 220 31
-7.20841 -11.0969 9.64027 43 20 213
10.283 3.24036 -6.85469 220 152 55
-9.58998 1.53858 8.9217 20 131 205
4.09862 7.72624 10.6812 160 213 220
-5.1799 7.51139 -9.74154 59 189 20
-5.38492 10.0281 -0.705027 73 220 114
2.39997 -10.1919 -7.36971 150 20 43
10.4586 3.69556 6.90064 220 159 186
-10.1543 -1.16888 7.28557 20 119 196
9.11802 -8.27581 10.7504 212 44 220
1.36354 -2.20085 -10.1672 129 101 20
6.6772 10.451 7.88455 187 220 195
-9.8139 -9.78374 -6.03959 30 20 62
9.84604 2.16515 -8.47379 220 139 26
-10.1392 -3.87669 3.27743 20 85 149
3.73715 5.56063 10.4688 159 161 220
4.00777 -0.810845 -9.50057 166 114 20
5.28662 9.78166 -8.78615 177 220 35
6.02072 -9.97115 0.854333 185 20 123
10.0831 -9.01273 -5.32624 220 32 66
-9.9072 6.22328 -5.46564 20 188 65
4.74763 9.1982 9.8565 166 209 220
4.37888 1.18743 -9.46459 159 131 20
-3.56228 10.187 5.15642 91 220 165
-3.35878 -10.0371 8.00763 90 20 191
10.1401 8.97234 -6.35765 220 218 65
-10.3209 -3.88352 0.464566 20 85 128
-6.11949 8.84084 10.0441 67 216 220
3.76632 8.37373 -9.96926 159 201 20
-6.05801 10.3073 -7.85752 62 220 45
-6.61299 -9.78541 9.94656 55 20 213
10.3148 6.39747 6.01069 220 173 185
-9.48518 -6.70611 7.52962 20 47 199
-5.51847 8.00317 10.7232 63 200 220
-5.17618 -1.84269 -9.90703 68 105 20
3.27015 9.97105 1.40906 159 220 134
0.438201 -9.18198 5.79151 121 20 178
10.209 -1.21901 7.21614 220 106 197
-10.7876 -2.4171 2.61296 20 91 146
6.41409 -0.440067 11.0053 181 118 220
2.5069 4.82983 -10.1587 142 169 20
6.74921 10.4356 5.79052 186 220 185
-3.87823 -10.7702 -4.91412 72 20 79
9.37964 -7.06641 -2.90052 220 50 93
-9.84917 2.03428 7.09103 20 149 191
7.87253 8.51917 10.7997 192 208 220
-9.27325 -5.36795 -10.0029 30 69 20
-4.11723 9.82555 -1.33814 68 220 108
0.422651 -9.03895 5.33025 128 20 174
9.43921 3.32218 -1.99116 220 145 102
-9.62387 2.51404 -3.22629 20 147 88
-7.54391 4.59805 10.1557 39 161 220
-6.20694 -6.46505 -9.99632 55 55 20
-2.25639 9.59 3.40435 93 220 154
-2.49809 -10.4386 -2.25234 97 20 92
10.1698 -7.51408 -5.89355 220 46 55
-9.44235 9.96976 8.14503 20 217 203
-4.97105 -4.0633 8.91941 62 88 220
-4.53225 -5.27032 -10.1756 74 70 20
-5.23878 10.8037 0.365876 72 220 131
6.46007 -9.88678 -9.71694 189 20 23
9.45719 3.10073 -5.52376 220 151 66
-10.2055 6.34627 1.18173 20 193 130
-2.64072 8.63202 9.82212 93 202 220
-6.42096 -5.59395 -10.3153 63 57 20
7.83256 10.8691 9.30419 195 220 207
6.13612 -9.8797 5.36695 172 20 174
9.58262 -10.2359 3.49272 220 20 154
-10.0865 -3.80568 10.987 20 79 219
9.46641 8.50477 9.41593 217 204 220
0.619858 6.62844 -10.2828 124 184 20
5.45217 9.75713 -7.50043 170 220 47
6.10229 -10.4612 -3.88785 173 20 82
10.6649 9.47015 -9.28663 220 211 28
-9.80008 2.74289 9.20542 20 147 212
-6.1364 3.24294 10.4469 66 154 220
-1.89201 -7.9453 -10.3604 88 35 20
-2.89328 10.1956 -9.94732 92 220 25
-2.95578 -9.28511 -2.63012 90 20 83
9.39651 3.98846 4.33494 220 162 164
-10.1108 -2.01811 -4.73719 20 99 66
-0.126478 -3.19749 10.3333 116 81 220
-7.90907 -1.03378 -11.3785 42 114 20
2.97708 9.89392 1.5026 155 220 135
2.79811 -9.56326 -1.1282 138 20 110
9.51925 -3.97348 -8.76496 220 87 32
-9.92314 -7.84148 -6.81532 20 35 55
-4.01611 1.66015 10.5315 77 127 220
-1.95244 -1.55086 -10.0811 96 103 20
5.77421 9.98826 7.18985 182 220 193
6.20422 -9.74521 -1.66565 179 20 105
9.87445 3.8126 -5.91844 220 158 60
-10.0718 -5.07751 3.1137 20 64 147
-0.354481 7.84181 10.1972 123 203 220
-7.33087 3.12247 -9.39037 51 147 20
4.04655 11.1826 8.55739 154 220 203
5.5969 -10.4216 -2.72731 176 20 85
10.078 -5.91512 8.94157 220 52 209
-9.14646 7.72989 -7.6946 20 199 37
-4.54884 -2.18222 9.86721 79 95 220
-0.49928 6.84818 -11.2517 116 195 20
4.30948 11.244 -7.6128 165 220 45
-1.51281 -10.3453 -1.61109 100 20 102
9.24026 -8.99093 9.15595 220 30 200
-9.73354 -1.43533 3.05437 20 103 143
-8.85091 1.65425 10.1922 30 129 220
3.5832 -5.99925 -11.0024 155 51 20
0.580232 10.565 -3.47401 132 220 83
-1.37365 -10.1652 -1.64285 98 20 106
9.63084 -1.21993 -6.52861 220 110 54
-10.1121 -5.5938 -7.80273 20 70 36
3.84677 -3.86476 10.4316 158 89 220
2.93766 2.74735 -10.0134 141 152 20
-4.7134 9.67048 1.54239 73 220 133
-0.674059 -10.1706 6.7967 116 20 191
9.62786 -0.833909 -4.56093 220 114 68
-9.91721 5.02126 -0.0554641 20 169 120
-6.74762 -5.61915 10.5784 47 71 220
7.07855 7.45705 -9.86963 195 200 20
4.37864 10.872 -3.79958 157 220 80
-5.60597 -9.89154 9.34711 62 20 217
9.22859 -0.996131 -2.48991 220 116 90
-10.1557 -5.2217 -7.75478 20 67 41
5.91518 0.692161 10.0794 186 132 220
5.09942 1.83518 -10.0684 164 141 20
0.735227 10.6749 -6.82775 126 220 45
-4.07645 -9.73177 -6.17942 74 20 60
10.651 0.111646 5.34223 220 122 172
-10.1223 2.88472 -3.57235 20 146 93
-7.13046 -9.01459 10.1139 47 29 220
7.2977 3.70769 -9.01684 200 158 20
-0.503126 10.1037 7.845 111 220 195
7.39473 -10.2474 -7.81531 200 20 38
9.67539 -2.04021 7.10469 220 99 197
-9.19259 0.471589 -9.40358 20 117 24
-4.21953 4.24235 9.91479 75 154 220
-2.90298 1.4962 -9.5655 90 140 20
-2.31287 10.3947 -0.283238 98 220 117
-9.52398 -11.3939 2.93102 20 20 151
10.3538 3.366 7.14597 220 151 188
-10.9311 1.35489 7.49291 20 135 193
-5.06247 -3.99431 9.97955 74 88 220
-6.67571 1.34494 -9.33929 55 131 20
8.8559 9.87044 5.40915 213 220 166
4.56006 -10.0691 6.14965 168 20 179
9.57112 2.26243 -7.46476 220 134 48
-10.0879 0.352154 -5.62782 20 131 58
-7.1006 -8.29007 10.3685 50 37 220
1.56669 7.95034 -9.75854 132 189 20
8.17288 9.4739 -6.17826 198 220 60
0.506912 -10.1339 -6.81611 120 20 52
10.0346 2.56274 8.75419 220 146 214
-9.72087 -7.44127 -2.82999 20 48 92
-5.54117 2.50934 9.95363 63 144 220
-2.4512 2.69224 -9.99131 90 144 20
3.49691 10.8145 5.23988 155 220 173
8.40176 -9.33475 -7.47175 209 20 42
10.0373 8.58156 -0.873768 220 206 110
-10.24 -3.20198 -7.28828 20 88 56
-6.33662 -9.72526 9.88536 43 22 220
-7.42873 10.2834 -10.285 43 217 20
4.8178 10.6693 4.97539 166 220 162
-2.95827 -11.0597 8.59723 86 20 204
9.30729 5.36366 -6.16036 220 174 58
-10.3969 -0.192247 1.83962 20 121 143
6.74391 -7.04177 10.2565 188 62 220
4.8237 -4.0387 -10.0627 168 78 20
4.41111 10.5973 7.2532 170 220 194
9.7674 -10.492 0.499905 217 20 116
11.1841 3.79539 -5.91325 220 164 60
-9.55063 5.27007 1.57833 20 173 131
7.43068 -8.1435 9.28628 196 40 220
-2.19133 -9.69476 -9.67015 100 24 20
1.44257 9.67607 -8.72821 133 220 28
1.0529 -9.71854 7.495 133 20 195
10.4208 -0.576219 -0.0224551 220 110 121
-9.79722 9.26492 -3.50047 20 206 84
-6.57335 -9.39189 10.1007 55 24 220
2.91171 -7.03095 -9.42118 156 39 20
-4.18311 9.98863 -6.52616 82 220 55
-5.93013 -10.0637 -1.97279 68 20 102
9.72982 5.93051 -5.97419 220 180 49
-8.60603 -6.38097 9.45183 20 57 213
-1.34723 -8.64816 9.79863 115 28 220
3.35865 -3.32854 -9.63531 153 87 20
8.24249 10.6411 5.67476 215 220 181
2.65912 -9.66468 3.24478 151 20 157
9.98554 9.47406 -2.05446 220 209 93
-11.1017 -7.64658 2.8816 20 39 146
2.37507 10.1034 9.38674 142 215 220
-3.85895 -3.89341 -9.27668 75 71 20
5.75298 10.4005 -5.35041 178 220 69
-3.31917 -9.77376 -7.21625 76 20 47
10.0204 2.37062 0.262935 220 145 120
-10.0429 -6.41081 6.0464 20 49 184
1.49031 2.24912 10.3147 139 142 220
-9.76388 -5.45654 -10.8899 33 67 20
5.24718 10.1281 7.42976 174 220 198
2.49468 -8.99516 6.86963 154 20 185
9.93606 -4.31531 -2.89955 220 75 87
-10.4077 6.02117 -3.96347 20 181 83
2.05587 6.41482 9.90343 135 184 220
1.0966 2.51189 -10.3226 135 149 20
7.56073 9.45051 6.95375 182 220 187
-2.92322 -9.27666 4.51272 99 20 161
10.3592 9.99389 -8.14763 220 218 40
-9.46812 -8.02581 4.47603 20 47 165
-3.17621 5.1757 10.4929 90 168 220
-6.76884 -0.756095 -9.6083 56 112 20
1.40287 10.0632 5.48447 137 220 174
2.52735 -9.82369 -0.442055 142 20 114
10.0113 1.93122 -0.308747 220 138 112
-9.16174 -0.942109 6.05916 20 112 172
5.10179 -0.690404 9.82848 179 108 220
-3.68035 -1.34529 -10.4498 79 100 20
-8.42111 9.58225 -6.06362 34 220 60
-3.42059 -9.3902 2.84556 82 20 147
10.4206 -7.78177 -7.43486 220 38 50
-9.6045 -0.379236 -1.75182 20 117 103
-4.11701 5.9289 9.95435 79 186 220
1.24927 4.83935 -9.47269 129 163 20
-3.51735 10.6292 -1.52776 99 220 104
-7.86082 -10.8272 3.61325 42 20 159
10.3453 2.17854 -4.83525 220 138 74
-10.1656 -1.03782 8.62822 20 112 204
-6.20407 5.11545 10.4932 64 172 220
7.44586 -2.64076 -10.1496 188 90 20
7.72262 9.70473 -4.91496 198 220 69
7.84177 -10.2309 -3.52436 193 20 74
9.65283 -2.79157 4.93968 220 96 162
-9.51773 6.11767 9.86061 20 186 215
-5.77846 2.91769 10.0705 62 156 220
3.2851 3.23364 -10.4801 154 153 20
-6.77464 9.56886 8.80588 49 220 204
5.71974 -9.53562 -0.525166 180 20 112
9.88413 -2.20975 -4.63608 220 100 69
-9.19023 3.28396 1.61281 20 149 130
-2.37277 -3.67289 9.95482 101 85 220
-3.44858 2.65126 -9.92762 82 139 20
0.515758 10.3949 4.82173 120 220 165
-0.750982 -10.3767 -9.9029 115 20 25
9.60776 -4.50809 -0.0746584 220 68 116
-10.1081 -9.28642 3.40444 20 30 150
-3.55049 -4.06226 10.4317 83 86 220
-6.18107 5.60289 -10.2042 63 172 20
4.47761 10.6239 -3.4655 168 220 91
-3.0894 -10.5617 -8.93976 91 20 29
10.305 -1.89389 7.07894 220 97 194
-10.1872 -4.59671 -6.36771 20 70 60
2.89379 -4.57867 10.3111 148 79 220
2.22392 -0.150108 -9.86669 151 108 20
3.92369 9.78412 -1.22121 152 220 106
7.13049 -10.3645 7.36002 178 20 194
9.66499 9.52413 9.84353 220 216 218
-10.2447 -4.36215 1.40058 20 78 132
-6.65099 -0.451518 9.89062 50 117 220
-5.64477 7.35152 -10.4784 61 199 20
2.50901 10.536 1.04033 147 220 138
-5.93622 -9.88698 6.75486 61 20 192
10.7589 -3.89712 7.8044 220 70 195
-9.93796 3.01287 -5.65361 20 150 57
4.59997 0.938912 10.7535 167 130 220
-2.32042 -10.0393 -9.45327 97 25 20
1.07319 9.84077 7.36444 131 220 190
-9.4277 -10.243 -7.66494 22 20 38
9.56651 -7.89813 -6.35307 220 40 57
-10.2796 -8.0642 5.77995 20 41 168
-6.08636 -5.00128 9.49409 59 75 220
-2.19827 -1.0298 -10.2448 104 114 20
6.58834 9.85941 5.22312 187 220 175
-3.31362 -9.97013 -5.73867 78 20 59
10.1495 4.61977 -9.94976 220 168 20
-10.4029 -6.56038 -8.84183 20 52 24
-8.2524 3.07709 9.96981 40 151 220
0.938847 -1.05679 -10.3185 129 112 20
2.89872 9.98254 -4.3618 147 220 75
9.08028 -10.8639 -3.8279 210 20 87
10.7573 3.70365 9.06272 220 155 209
-10.2456 -5.90694 -1.04222 20 63 105
3.95843 -5.82005 10.1207 155 60 220
8.0494 1.93356 -9.76776 205 140 20
3.86117 10.453 -3.10979 151 220 84
-7.45609 -10.131 -1.8514 44 20 92
10.1984 -7.9023 2.20688 220 47 142
-10.5541 0.147242 -6.18312 20 123 53
-3.95583 6.47064 9.4032 72 181 220
-8.71481 -7.22923 -9.29208 32 51 20
-7.62388 10.4406 5.00819 42 220 169
-2.92633 -9.25262 6.76483 89 20 185
10.139 -8.53508 9.15125 220 32 206
-9.82634 1.60365 -2.28924 20 134 91
2.51825 9.45978 9.72419 138 217 220
3.73004 -8.37871 -10.3888 161 30 20
-9.02838 8.74677 9.91288 30 220 216
-8.26986 -10.3067 -4.68202 40 20 77
10.4581 3.93715 -7.67145 220 153 42
-9.84673 5.63763 -8.38713 20 179 39
2.16765 4.63614 10.0244 140 161 220
4.97453 -3.96764 -10.4196 176 84 20
1.10975 9.3307 -4.39381 137 220 79
-9.79218 -10.0943 2.67376 27 20 141
9.98935 -3.64324 -7.96647 220 83 40
-10.2217 -9.86087 7.25929 20 25 192
-7.93831 -4.24871 9.47745 36 79 220
4.92214 -0.288438 -10.5378 171 126 20
0.0264277 10.0955 0.520129 120 220 120
2.34785 -9.93666 -8.93789 152 20 24
10.4454 -1.5921 0.716933 220 106 130
-10.6534 6.78881 -4.0455 20 196 86
5.72073 3.22678 9.20249 176 151 220
-4.85306 -7.57074 -10.6596 76 45 20
7.37071 9.9843 -2.28734 192 220 100
-2.94852 -10.0562 -6.89351 88 20 58
10.0375 -5.14084 5.53851 220 67 178
-10.4197 -7.20159 -1.52335 20 42 101
5.36123 6.88402 10.2684 176 186 220
8.15044 6.63557 -9.61204 205 187 20
5.22428 9.45526 -3.78519 173 220 86
4.30963 -8.89598 1.53846 160 20 129
10.3148 8.28847 -4.83138 220 197 76
-10.8682 6.6586 -0.274291 20 191 122
-0.904106 0.833665 9.98954 105 135 220
2.11745 -2.48787 -10.1494 142 89 20
9.01286 8.8536 -1.09004 210 220 106
-3.76562 -9.7889 -5.96628 83 20 60
9.73659 6.47138 -9.11343 220 184 33
-9.01512 3.9132 -4.93407 20 159 71
0.177844 -5.98797 10.1607 118 61 220
2.57988 5.849 -9.05269 135 175 20
-7.7682 10.3049 3.68472 43 220 154
-5.10671 -10.4305 -3.91274 63 20 77
10.0478 -9.03288 -2.40443 220 24 92
-10.0808 2.6852 -8.16312 20 150 30
7.39147 3.98012 10.5987 189 160 220
3.54558 -9.44502 -10.0375 152 32 20
-0.15009 9.94062 -1.00669 113 220 103
2.56039 -9.81626 -8.59146 145 20 41
9.87996 -0.193833 -2.60033 220 128 99
-9.4246 1.53502 3.0754 20 132 165
2.16679 -5.38741 9.59304 141 67 220
-9.26762 1.58121 -10.4862 23 137 20
-7.39521 9.95171 0.0645949 41 220 117
6.55997 -9.16953 -9.12069 184 20 34
9.89113 6.83214 -5.23554 220 195 72
-10.3906 9.85817 -8.72795 20 214 39
4.76143 -6.87206 10.0048 160 53 220
-4.39337 -1.31168 -9.1233 72 106 20
0.326998 8.84228 4.39649 126 220 160
-4.9726 -9.83518 -7.56595 74 20 34
11.1421 7.10441 -7.81537 220 188 39
-10.2034 -4.23277 6.84885 20 80 195
3.81449 -9.51136 9.24584 157 25 220
-2.29916 1.42242 -10.0545 95 134 20
6.76145 9.59841 7.13379 186 220 185
-0.0990025 -10.3117 -4.59261 114 20 75
9.61256 -5.12305 5.15812 220 71 174
-9.56775 4.4332 4.80256 20 166 170
