ply
format ascii 1.0
element vertex 1290
property float x
property float y
property float z
property uchar red
property uchar green
property uchar blue
end_header
8.65418 10.014 6.09896 206 220 180
-9.36684 -10.0494 -10.0281 25 20 20
9.9496 2.93584 -1.15005 220 149 108
-10.0846 3.22793 8.78276 20 150 207
-7.34871 -7.62896 10.0517 45 42 220
2.41306 -8.25674 -10.0693 145 37 20
-8.07092 10.2925 6.22054 39 220 182
3.22152 -10.0069 4.05929 151 20 161
9.96812 8.07357 -7.17148 220 199 48
-10.1222 1.97401 6.4861 20 138 185
7.91979 9.89875 9.96126 199 218 220
-9.62515 -0.172462 -9.90001 24 118 20
9.68027 9.94257 -3.65155 215 220 82
1.08889 -9.89937 1.58373 130 20 137
9.91396 -2.29166 3.64813 220 97 156
-10.205 0.214076 -5.24047 20 123 66
-1.04172 2.10467 10.0437 107 141 220
0.770606 5.3981 -10.1667 126 172 20
6.59457 9.82413 -9.37385 185 220 25
-8.0251 -9.95961 5.54417 41 20 175
9.96971 -9.63119 4.86925 220 24 167
-9.91241 -5.60682 -0.152215 20 64 118
-4.31692 5.47131 10.0381 75 173 220
4.02666 9.63583 -9.93495 159 217 20
-2.19469 9.97811 6.72199 99 220 188
-0.204153 -9.86686 5.77939 118 20 177
10.0951 1.14085 8.67272 220 132 206
-10.0317 8.18482 5.60609 20 203 173
-5.37877 4.66576 10.0082 67 165 220
-4.07524 6.91262 -10.0379 79 188 20
-9.49052 9.95774 -7.15015 23 220 48
0.600526 -9.97954 4.13252 124 20 162
9.92833 -3.01515 -9.26306 220 91 27
-9.94635 -4.85542 -8.82107 20 71 31
1.17994 4.11482 10.0288 132 161 220
-7.07372 -4.65535 -10.0289 48 75 20
2.20986 10.0031 -4.35916 141 220 76
0.52469 -9.81952 -7.08769 123 20 50
9.90464 6.46987 0.843242 220 185 127
-9.97897 3.08025 -4.69708 20 151 72
6.64817 6.52298 10.0186 185 183 220
-5.70132 5.46918 -10.151 63 174 20
-9.63998 9.88391 -3.20997 24 220 87
-4.62066 -9.91716 -4.15752 73 20 77
9.94475 1.73247 -3.12873 220 138 90
-10.0042 -5.64273 3.57528 20 63 154
-8.69809 -2.64633 9.94397 32 94 220
-2.6574 9.55896 -9.9703 94 215 20
5.01568 10.1001 5.01536 170 220 168
9.85031 -10.0546 7.67547 216 20 196
9.92175 -3.19668 -2.08088 220 88 99
-10.0258 -2.58101 -9.31793 20 93 27
1.60767 -1.03945 9.93693 136 110 220
5.17467 -8.63554 -10.1387 170 33 20
4.85265 9.97965 -4.21448 169 220 77
-5.21806 -9.97984 0.332654 69 20 122
10.0311 2.34171 -8.5754 220 143 36
-9.92709 5.03426 5.18954 20 170 171
-4.33932 -6.26072 10.0809 77 58 220
8.53787 -6.6307 -10.0281 204 55 20
4.36523 9.97559 -4.47606 160 220 74
3.68527 -10.0504 9.82344 157 20 218
10.0397 6.60718 2.19971 220 186 141
-10.0026 -8.16306 5.63925 20 36 175
7.73709 -2.72459 10.0721 198 93 220
-8.2487 8.26205 -9.96065 37 204 20
2.85924 10.0343 6.79962 147 220 188
-3.66276 -9.93586 -3.8891 85 20 79
10.0736 -0.56389 -4.62815 220 113 72
-10.0531 9.95538 3.13747 20 218 151
9.19334 7.97933 9.94464 212 199 220
-3.07284 -7.29351 -10.0323 89 47 20
-9.00839 10.0394 0.923156 29 220 128
-7.23425 -10.1329 -0.510144 47 20 113
9.95962 2.43647 6.85072 220 145 187
-9.98001 8.37608 -2.08858 20 203 99
4.34195 8.43895 9.82204 161 203 220
-7.41228 8.41727 -10.0492 44 203 20
-6.19101 10.1193 -3.39498 58 220 85
2.43214 -9.9703 4.29183 144 20 163
10.0745 8.24745 -5.03851 220 203 70
-10.1068 -3.45734 -2.55868 20 84 94
-5.51704 -1.50398 10.119 64 104 220
-0.247342 -0.387823 -9.97185 118 116 20
1.43766 9.93968 6.60894 134 220 186
-5.58527 -9.93147 3.77086 64 20 158
10.0303 6.13353 6.5142 220 182 184
-10.0057 -7.43676 -6.79665 20 45 50
-1.35259 -3.61788 10.1256 105 84 220
-1.30706 6.83721 -9.96953 107 189 20
-2.03398 9.9723 -4.46043 99 220 75
-0.832574 -10.0429 -3.97044 110 20 79
9.95106 2.03598 9.55565 220 140 215
-10.0417 -5.10376 -8.14038 20 69 38
0.553858 2.96408 10.154 126 150 220
-4.56003 -7.97611 -9.95507 73 40 20
9.05595 10.1211 -4.28639 209 220 76
2.19111 -9.88641 -7.6483 141 20 44
10.0721 9.78916 -2.83427 220 218 90
-10.0687 4.18828 3.56772 20 159 156
3.02348 0.64627 10.0433 149 126 220
-4.11887 -10.1222 -10.213 77 20 20
-4.0344 9.96816 2.30753 78 220 144
2.02619 -10.0038 0.324563 140 20 122
9.96426 3.11789 9.97519 220 150 218
-9.9715 0.963793 -3.44015 20 130 86
3.28872 5.0929 10.0936 151 170 220
-7.81838 -6.82262 -9.96023 41 51 20
6.44519 9.79049 1.90565 183 220 138
-9.19243 -10.0413 -9.00484 27 20 31
10.0635 -3.53927 5.45327 220 84 174
-10.1099 -3.70769 3.02359 20 82 150
5.81227 9.62204 9.89533 176 215 220
0.395444 -8.37489 -9.94146 124 34 20
7.10341 10.0922 -3.19072 191 220 88
-4.35325 -10.0434 0.936809 76 20 129
9.80605 -2.85403 1.958 220 90 140
-9.90205 -6.08207 -2.78234 20 59 91
-5.67207 -4.08862 9.91163 63 79 220
-3.01974 -8.57455 -9.92382 89 35 20
-6.30978 9.94658 -2.69756 56 220 91
-0.341453 -10.0501 4.798 115 20 167
10.0723 6.43912 -3.81326 220 185 82
-9.89383 5.69568 9.21375 20 177 211
-9.01132 -8.22808 9.91746 31 36 220
-7.63169 1.55243 -9.97352 42 134 20
0.36685 10.1594 8.94679 125 220 210
-5.65009 -9.82849 4.50332 62 20 164
9.91357 4.73807 -8.34155 220 166 36
-9.91606 -5.01029 -1.22709 20 70 108
3.70151 7.98753 9.94145 156 199 220
-9.85569 4.9126 -10.1247 20 168 20
9.35718 9.93874 -5.53485 214 220 64
9.14417 -10.0547 8.88859 212 20 207
10.0051 -4.92265 6.44773 220 71 182
-9.83772 -5.24926 7.36034 20 66 193
6.61333 5.27481 9.94206 187 173 220
9.54843 -4.67058 -9.91093 215 74 20
3.70378 10.0101 -6.90633 157 220 50
5.27118 -10.1515 -8.40979 173 20 38
9.92222 7.93313 5.56545 220 198 176
-10.0121 0.814615 -6.83585 20 129 52
-7.7942 -7.5333 9.92956 42 44 220
0.850511 -0.12533 -9.95208 129 119 20
4.12661 9.98812 0.974195 161 220 130
-0.450715 -9.96567 1.00808 116 20 129
9.93688 -7.96868 -3.60309 220 39 85
-10.0139 9.19436 0.0803685 20 210 120
9.74115 3.73629 9.99042 219 158 220
-9.45206 -8.72699 -10.0148 26 33 20
0.678625 10.1206 -7.82243 127 220 42
-6.79683 -9.97402 7.40041 53 20 192
10.002 -1.59947 -0.839355 220 102 111
-9.8265 6.86233 -9.56079 20 187 23
7.75224 5.15517 9.96291 195 174 220
-1.37259 -3.82553 -9.94694 107 82 20
-2.79652 10.2493 -0.0868405 91 220 119
5.67137 -10.0159 2.02084 175 20 141
10.0868 4.31961 -7.97535 220 162 41
-10.0353 2.07193 9.0214 20 140 211
-4.42067 -3.88746 9.96971 76 79 220
6.45988 -0.38469 -9.98434 184 117 20
9.6607 10.0828 -2.47823 218 220 96
-1.28975 -10.059 -8.59368 105 20 33
10.0623 -9.41598 7.64469 220 23 195
-10.0243 7.77526 9.27026 20 196 213
-5.86506 0.785688 9.82347 62 127 220
1.89694 9.52454 -10.1328 140 215 20
-6.736 9.90003 5.97819 52 220 180
4.0683 -10.0715 5.68471 160 20 177
10.0749 9.05184 -0.0455344 220 210 119
-9.92872 2.78106 9.58889 20 145 216
4.88671 1.39446 9.87452 169 134 220
1.25297 -4.97905 -9.93 132 70 20
8.40858 10.1217 -8.76419 204 220 32
-8.8441 -10.1484 5.40045 32 20 174
10.0999 7.97071 6.74243 220 199 187
-9.88514 -6.30437 -4.49838 20 56 75
-1.13202 2.20423 10.0298 109 141 220
-9.52405 9.82024 -9.99157 24 217 20
7.48615 10.1084 -5.45 193 220 65
7.31725 -10.0106 7.38116 194 20 194
10.0194 0.757705 -0.500129 220 127 114
-10.0961 -2.71434 5.45598 20 93 174
6.96316 8.46192 10.281 189 204 220
3.4037 -9.02453 -9.95753 155 30 20
0.404853 10.0584 2.48617 124 220 143
9.10783 -9.89148 -3.81003 211 20 83
9.81611 -4.49015 -1.75516 220 75 102
-9.96136 5.5772 9.03275 20 174 210
1.14172 -8.4868 10.0417 130 35 220
5.86237 3.69346 -10.0524 178 156 20
1.06125 9.97265 -1.13504 130 220 107
2.40207 -9.80488 -7.57199 143 20 43
10.0722 0.145568 -4.23448 220 120 78
-9.87247 -0.299198 6.6277 20 116 186
-2.67093 2.5416 9.98104 93 147 220
2.14044 -1.67923 -10.1112 140 103 20
1.41904 10.0853 4.4291 136 220 164
6.76278 -10.0695 8.71129 189 20 208
10.2125 -7.2661 -8.5941 220 46 34
-9.97192 3.23103 -1.62061 20 153 105
-0.926242 -9.15183 10.0482 112 28 220
-5.48878 7.32588 -9.98148 66 193 20
8.44429 9.8716 -2.6813 204 220 94
2.28708 -9.94841 -3.30862 142 20 85
9.79635 8.32672 -5.57725 220 203 65
-10.0843 -7.16505 -3.43231 20 47 84
5.23475 -0.50403 9.88031 172 115 220
-9.27177 -7.93618 -9.91379 26 40 20
-2.55442 9.9897 0.414577 94 220 125
4.37108 -9.90207 3.51462 163 20 156
10.0533 1.65775 -8.97045 220 139 30
-9.83311 6.09159 -5.08041 20 180 71
-7.83129 6.44159 9.96065 40 185 220
-3.51321 -7.32818 -10.1023 85 46 20
-2.39933 9.96583 -3.8931 97 220 81
4.55652 -10.0345 8.00802 165 20 199
9.91777 2.90216 -6.5985 220 147 55
-9.91272 -9.52411 3.96568 20 25 158
-3.42223 -3.47447 10.0855 85 86 220
9.65851 -2.90653 -10.0103 216 91 20
7.18544 9.93626 7.11246 191 220 190
-9.38359 -9.93441 7.62541 25 20 197
9.82246 -5.77449 6.67195 220 62 186
-9.89934 2.45874 -6.78334 20 144 52
2.05562 1.71227 10.0799 140 135 220
4.08362 8.01672 -10.0173 160 199 20
-9.10016 9.8562 6.60986 29 220 185
1.85737 -9.81455 -0.693322 139 20 113
10.1177 4.7311 5.71822 220 167 177
-9.92413 2.15291 9.60605 20 140 214
-5.84051 2.17386 9.83082 61 139 220
-9.34852 -2.06484 -9.89836 27 100 20
-7.83267 9.96776 -5.42518 44 220 66
-4.14863 -9.95436 6.22747 78 20 184
10.232 -2.74523 -5.48069 220 92 63
-9.82518 2.66335 -3.91298 20 147 82
-1.83738 4.7945 10.0212 102 167 220
7.20289 -8.60669 -9.94603 190 35 20
-9.73156 10.1093 3.59625 23 220 154
8.82181 -10.0515 -2.92206 207 20 93
9.90867 8.10318 2.26237 220 202 142
-10.112 -0.736456 0.805304 20 112 129
-6.49574 9.1802 10.0552 55 212 220
7.5477 -8.33517 -10.0613 193 36 20
5.3496 9.93063 8.70494 172 220 207
-8.01145 -10.0192 1.89572 39 20 139
9.95861 -1.81477 9.86244 220 100 219
-9.85923 1.48082 -3.895 20 135 80
-6.28959 -6.57596 9.98806 57 54 220
-5.57857 4.95026 -10.0484 65 168 20
-3.78619 10.1225 6.16535 81 220 182
5.42717 -9.98405 3.99645 175 20 159
10.0636 7.13077 5.22212 220 191 172
-9.9255 -6.8123 8.11294 20 51 200
-9.04689 3.10908 10.1064 29 152 220
-3.96576 3.87361 -9.9356 79 158 20
1.44344 10.1066 -8.26957 132 220 38
6.39618 -9.99045 -4.81567 185 20 72
9.93624 -5.40152 -3.89499 220 65 80
-10.141 -3.79408 -8.57085 20 81 32
-1.80758 -2.61852 9.86342 101 94 220
8.9005 1.64619 -9.91386 207 135 20
-5.35145 9.98425 -0.262515 67 220 118
-4.78182 -9.89656 -6.5918 72 20 53
9.96247 -5.57385 7.19445 220 64 191
-10.0088 6.6706 -7.60465 20 187 42
-0.894489 -0.407437 9.97506 110 115 220
6.04245 -5.30361 -10.007 181 65 20
-3.95802 9.99557 -2.44516 80 220 96
-5.22487 -9.97935 -5.75524 66 20 62
10.1409 -2.88654 -5.47792 220 91 65
-9.87169 3.42148 6.2247 20 154 181
-0.0683761 -9.61548 10.0074 119 23 220
1.64346 6.9822 -9.9438 136 187 20
-9.84307 9.98242 2.98112 20 220 149
7.50828 -10.1012 -2.18369 195 20 98
10.0071 -5.31242 -7.89325 220 65 41
-9.82404 -2.57168 -5.22753 20 96 68
4.95711 8.56143 10.0279 170 205 220
-5.83425 8.26508 -10.0666 62 202 20
-6.92833 9.95762 9.07915 50 220 210
-4.76112 -9.81573 4.15468 72 20 163
10.036 -8.04104 2.19131 220 39 141
-9.92775 -3.13343 -8.2651 20 88 39
2.03956 -2.29636 10.0639 138 98 220
8.01884 3.35087 -10.0014 202 153 20
-6.35837 10.0852 7.39359 56 220 192
6.77738 -9.82815 9.65604 186 20 218
9.94802 4.61951 7.95786 220 165 200
-10.0206 7.41147 -3.57757 20 193 84
-7.26981 8.16488 9.90851 46 201 220
7.36319 -3.89855 -9.88089 194 79 20
7.24036 10.3791 1.07184 193 220 130
-5.911 -9.87852 -1.04126 59 20 110
10.1216 4.97933 6.55241 220 169 184
-9.98604 -4.07249 -6.28024 20 79 56
2.34619 0.411855 10.0402 142 124 220
-8.37218 8.29801 -10.0053 36 202 20
-7.11846 10.0226 -6.65585 47 220 53
3.11703 -9.96851 1.68944 149 20 136
10.0396 -8.66701 9.66329 220 31 217
-10.1502 8.85064 -9.79484 20 207 22
2.99011 8.61524 10.1378 150 204 220
-9.16684 -7.37618 -10.0313 28 45 20
-6.61263 9.96172 8.38082 53 220 204
6.3867 -10.1132 7.50132 184 20 194
9.90451 1.10373 -8.92379 220 131 29
-9.95062 1.89268 -4.03766 20 138 80
-1.4813 5.71608 9.92909 105 178 220
4.88601 -7.87874 -10.0375 169 41 20
-4.90297 10.057 -6.58765 70 220 56
0.184034 -10.03 -5.32245 122 20 66
10.0675 -1.63023 -2.78 220 102 90
-10.0362 -1.14009 5.73744 20 109 179
-4.89043 5.59912 9.83615 71 174 220
6.1123 8.89853 -9.98836 180 209 20
3.18953 9.82549 6.98848 151 220 189
6.8314 -9.97812 -3.43549 187 20 85
10.0313 -0.412273 -3.46205 220 115 87
-9.98464 -0.424832 3.2216 20 115 150
-6.57723 -4.6403 9.77335 53 74 220
-1.2825 5.87462 -9.97633 106 178 20
3.36989 9.74152 0.687069 153 220 125
-1.93166 -9.88265 7.03482 99 20 191
10.1026 0.560099 6.17953 220 123 180
-9.92479 -7.8192 3.17711 20 40 150
7.93993 1.97357 9.98661 197 140 220
3.07124 -7.53387 -9.96373 152 46 20
0.574815 9.84367 2.04752 126 220 139
4.25333 -9.90522 -5.43498 162 20 65
10.2379 2.06646 -3.89324 220 141 81
-10.0758 -6.97185 -1.26593 20 49 106
1.13995 -5.09551 9.94168 132 69 220
-2.77831 -8.28361 -10.1298 91 37 20
6.89139 10.0528 2.09583 188 220 140
-9.65058 -9.90026 -5.70418 23 20 62
9.99813 -7.18564 1.83376 220 46 139
-9.95471 -4.69917 9.2411 20 73 212
5.84345 -5.53282 10.121 177 63 220
-1.88745 -8.96186 -9.97203 101 30 20
-1.16179 10.158 -2.41169 108 220 95
8.51283 -10.0067 9.71422 204 20 218
10.0123 7.26207 -8.52529 220 193 33
-10.055 1.92631 4.07625 20 137 158
-2.01535 5.92384 10.2983 98 179 220
-0.796241 -6.12803 -9.94086 112 57 20
-1.51785 9.91215 8.23612 104 220 201
-2.78983 -9.93707 9.12709 92 20 212
10.1744 2.62987 -5.6318 220 147 60
-9.98393 5.99093 -8.68419 20 180 34
7.6304 -5.35738 9.93952 196 65 220
-0.910054 6.24697 -10.0028 111 182 20
4.95943 10.2009 -6.08633 167 220 60
-6.7971 -10.0994 0.812808 52 20 129
10.1397 -5.71425 -1.46747 220 63 105
-9.97161 -8.56022 1.81225 20 33 137
-0.560146 1.84405 9.99221 115 138 220
0.426762 9.14248 -9.90864 125 212 20
8.79474 9.94095 8.14345 208 220 203
2.80059 -9.76922 -1.13059 148 20 107
10.0276 -3.65361 5.0216 220 83 171
-9.90332 2.4554 -5.87839 20 144 60
-2.30453 -8.16373 10.0411 97 38 220
0.426768 9.10851 -9.85971 123 212 20
3.86837 9.98285 -1.78484 158 220 100
5.92934 -10.0609 4.09027 179 20 161
9.96474 5.45241 7.19125 220 174 191
-10.0288 -5.61748 9.57219 20 65 214
-9.88589 1.94242 9.87614 21 138 220
8.1537 -4.93884 -9.83962 200 70 20
-3.89116 10.0613 3.65203 80 220 157
-8.76139 -9.87949 -9.80449 33 20 20
9.96845 2.67585 1.61469 220 146 137
-10.0513 -7.04037 5.86209 20 48 179
-7.42163 -9.08576 10.0193 45 26 220
-9.29238 7.31508 -10.1208 27 194 20
-0.845214 9.90479 -8.13189 111 220 38
-8.58739 -10.018 -9.42174 34 20 25
9.93982 9.98261 -3.74449 220 218 82
-10.1497 2.55933 -4.8559 20 145 71
-2.25231 1.55247 9.92692 97 133 220
9.87709 1.92686 -9.99755 218 138 20
-4.96968 9.93352 -4.65947 71 220 71
6.88743 -9.89224 -9.51465 189 20 22
10.0951 -2.87953 -7.43323 220 91 44
-9.99783 7.80256 -5.40644 20 199 65
1.71201 0.0814847 10.0427 138 120 220
-6.55763 -5.96067 -9.87146 53 59 20
9.07352 10.1055 -2.15884 211 220 98
0.754904 -9.9476 3.00826 126 20 149
9.99494 1.79541 -6.76346 220 137 50
-10.0907 7.3876 -1.09751 20 194 107
1.69455 -0.65787 9.95118 137 113 220
-10.0097 -8.23804 -10.1005 21 37 20
9.07738 10.025 2.96785 211 220 149
-5.05271 -9.94058 0.688141 68 20 127
10.1529 0.970692 -7.79418 220 131 43
-10.1515 9.41997 1.82277 20 213 139
-3.37366 -6.97486 9.98949 86 51 220
1.39225 0.684047 -10.004 131 126 20
5.51555 9.99161 -2.72316 174 220 91
9.42078 -10.0695 -1.67 216 20 103
10.025 -8.87868 2.07705 220 33 140
-10.2026 -7.93705 -6.39203 20 42 55
-7.98188 -1.85427 10.0618 39 103 220
-0.195349 8.66821 -10.1607 118 206 20
4.05542 9.9368 -8.51625 159 220 34
4.55131 -10.0273 7.05686 164 20 190
10.1042 0.921812 4.04567 220 130 160
-10.0103 9.83105 -8.97787 20 219 30
-7.89327 1.08027 10.0855 42 130 220
6.32347 3.11044 -10.204 182 151 20
-5.5694 9.94027 -5.89367 64 220 61
-4.68732 -10.0403 8.9186 72 20 210
9.80437 8.65529 -7.02271 220 206 49
-9.90819 9.60099 5.55312 20 216 174
8.66388 -5.8925 9.99983 206 62 220
3.22437 -5.74593 -10.0723 154 62 20
-5.60502 9.96158 -3.53638 63 220 85
4.16437 -9.9322 4.20175 160 20 164
9.96775 -5.31786 6.8371 220 65 188
-9.8676 -0.136314 -8.92091 20 118 31
-8.85302 2.97478 10.1228 31 150 220
-4.94601 8.04744 -9.92286 70 199 20
9.38747 9.97699 0.426868 214 220 124
1.85509 -10.0193 5.53336 137 20 174
10.1052 9.42589 8.57012 220 214 202
-10.3502 0.261702 -4.37178 20 121 75
-8.56527 -1.11606 9.90714 35 110 220
2.82863 9.30495 -9.97558 148 214 20
8.77726 10.1281 -5.66256 206 220 64
2.84164 -10.0646 4.54774 148 20 166
9.87848 8.8251 8.30391 220 208 203
-9.97486 -9.55745 2.92625 20 23 147
-2.24666 7.46169 10.0916 98 194 220
-7.94928 6.23588 -10.0253 39 182 20
-3.33352 9.94543 2.50771 85 220 144
2.04763 -9.92706 -2.1333 139 20 98
9.85218 6.55862 3.29069 220 184 154
-10.0313 8.97938 8.39088 20 211 202
6.0283 3.22451 10.0305 178 152 220
6.04196 -5.68713 -10.078 181 62 20
-0.814145 9.98817 5.39773 112 220 173
-7.20558 -9.88855 -7.31056 45 20 47
10.0507 -3.00917 0.706192 220 88 126
-10.0551 -3.92694 -8.32488 20 82 34
7.29662 -5.81013 9.9727 193 60 220
-5.13343 2.05535 -9.99307 68 141 20
-0.262097 9.9263 5.74522 117 220 177
-0.797362 -10.1856 -7.9565 112 20 39
10.0454 -5.18655 3.91028 220 67 160
-9.80272 -0.679502 -8.44997 20 114 35
4.67994 -6.06799 9.86283 166 59 220
8.88914 7.27993 -10.0076 207 191 20
7.29065 10.0456 -6.29889 193 220 58
-1.68395 -9.87897 6.31275 101 20 184
9.97823 7.74194 6.44675 220 198 184
-10.0532 5.36659 -6.53166 20 174 53
9.68291 2.01075 10.2369 217 140 220
5.05591 1.50892 -10.0033 169 135 20
-6.47175 10.0837 -3.76084 53 220 81
5.33515 -10.1442 8.9702 173 20 208
9.9555 1.62306 1.78199 220 135 139
-9.8415 -9.23782 -3.44756 20 26 87
-5.10242 8.4365 9.96675 69 202 220
-9.85387 -9.24797 -9.84191 23 27 20
4.92458 9.85876 3.42374 169 220 155
-5.75312 -10.1388 2.88973 63 20 150
9.90197 0.580985 9.40883 220 124 214
-9.95531 8.85718 7.72503 20 209 196
-1.52309 -4.46801 10.0263 104 73 220
-2.65313 -6.63246 -9.98322 96 52 20
-4.15273 10.0277 -1.29645 78 220 106
6.43213 -10.0559 6.01605 185 20 177
9.89285 -1.3363 8.1415 220 106 201
-10.1034 -0.609687 -0.794832 20 112 111
-1.05527 1.55846 9.73043 108 134 220
8.44643 2.53205 -9.94043 204 145 20
-9.22435 9.94536 7.74143 28 220 198
-7.66952 -10.0817 -9.41721 44 20 25
10.0174 -9.38493 -4.05917 220 26 76
-9.97404 2.65207 2.53807 20 147 146
-0.152171 -3.52678 10.1015 118 84 220
7.04953 -6.10798 -9.99088 188 59 20
-4.92261 10.0249 1.80512 70 220 139
0.330096 -9.9261 -2.6442 121 20 92
9.96931 7.57305 -2.23383 220 193 96
-10.1128 -5.41098 1.87141 20 65 139
-1.62885 -0.991175 10.0371 104 109 220
-4.90177 9.5113 -9.99109 71 215 20
8.54646 10.0006 -8.8123 204 220 31
0.266243 -9.97808 -1.62465 123 20 103
9.97343 -7.09936 -1.73921 220 49 102
-9.95849 6.17228 0.653138 20 182 126
-7.88582 -2.9266 9.96371 40 90 220
-6.89744 6.3182 -10.0149 52 182 20
-0.572618 10.0932 -0.80131 111 220 112
-9.3325 -9.84887 4.78913 26 20 168
9.88451 -4.48545 -3.2176 220 75 87
-9.91902 -2.69561 6.74307 20 92 187
1.69048 8.45026 9.90969 136 204 220
9.27167 4.78529 -10.0087 213 169 20
2.66693 10.0969 -9.0556 145 220 29
-8.61145 -10.0835 2.1756 33 20 141
10.0587 -8.97318 -8.21248 220 29 39
-10.0922 9.20061 -1.99543 20 211 99
-5.41571 0.648965 9.96927 66 127 220
-8.52429 7.91287 -9.9822 35 198 20
-6.69336 9.96896 5.1466 52 220 169
-5.31157 -9.81753 -9.76646 66 20 23
10.1192 9.85696 -6.64932 220 218 54
-10.1517 -9.26877 -1.597 20 27 105
-0.778628 1.34192 9.98494 111 133 220
-0.886089 -1.36631 -10.0967 111 105 20
-5.20022 10.1414 -3.618 67 220 84
9.71393 -10.2401 -9.57569 216 20 25
9.83809 -9.42267 1.9233 220 26 137
-10.0153 -3.10831 -0.63103 20 88 113
-5.93408 8.17632 10.1038 59 202 220
-1.13424 -8.18394 -9.99071 108 39 20
2.1632 9.93077 3.4037 143 220 155
-0.530782 -9.94994 -2.47778 114 20 95
9.83997 -4.72451 6.75126 220 71 189
-10.0957 -2.24315 -0.935758 20 97 110
2.66539 -0.573678 10.0665 146 114 220
1.51703 -7.81425 -10.0656 133 41 20
2.37076 10.0478 1.4651 145 220 132
9.2475 -10.0614 -9.95166 213 20 20
9.86641 -7.35218 -5.90848 220 46 61
-9.98093 8.77497 5.0935 20 208 171
9.69248 4.75681 10.173 217 169 220
0.718181 6.77437 -9.96584 127 188 20
-8.64431 9.98399 8.89462 34 220 208
-4.6713 -9.96725 -9.65719 74 20 22
10.0489 -8.69459 -6.24117 220 33 57
-9.73029 -6.03537 7.43724 20 60 195
1.91611 -0.903592 9.97034 137 110 220
8.22866 -6.20331 -9.9234 203 59 20
8.95773 10.0638 7.92166 209 220 198
8.59712 -9.94957 5.07559 207 20 169
10.1738 -4.90024 8.41793 220 70 203
-9.94951 1.00458 0.11844 20 129 121
5.63715 -6.0386 9.9756 177 59 220
4.65659 6.9524 -10.092 166 189 20
3.0793 10.0177 2.5417 151 220 145
6.35692 -9.9378 9.60795 183 20 215
10.1447 8.14869 5.47538 220 201 175
-9.96485 -5.69014 -0.971283 20 63 109
4.52556 6.70952 9.8839 165 187 220
-7.19154 9.43434 -10.1872 48 213 20
8.62785 9.90215 -5.34638 206 220 65
8.24156 -9.95674 -2.63781 202 20 93
10.0086 -9.87962 8.55947 220 20 205
-10.1094 -0.78988 5.35908 20 111 174
4.53455 8.30506 10.1514 165 203 220
-0.413271 1.93448 -9.91552 113 139 20
-5.56464 9.92793 0.626574 64 220 125
-8.03781 -10.1237 2.32353 39 20 143
9.97317 -6.37076 7.87379 220 55 197
-9.84824 5.4598 5.8672 20 173 179
-2.67823 -3.65853 9.96308 94 85 220
-6.23761 -9.86487 -9.83548 58 20 20
-5.05089 9.99282 8.40067 69 220 204
-2.95643 -9.86962 -2.00875 91 20 100
9.85349 0.533718 8.54387 220 124 205
-9.95156 5.81532 -7.17918 20 176 48
-6.13729 -0.12119 9.86349 58 117 220
-8.42372 5.55804 -9.97435 36 175 20
-4.47359 9.97476 2.41186 74 220 144
3.07498 -9.87224 -6.37667 148 20 56
9.86476 -2.90149 0.89703 220 91 128
-10.0188 -6.80734 -6.84664 20 53 52
-4.72095 3.56442 9.9945 73 156 220
-5.77404 7.65919 -9.91573 60 195 20
7.27081 10.0469 -8.70017 193 220 32
-9.58271 -10.2013 4.34279 22 20 163
9.91116 -0.270969 -0.944939 220 118 111
-10.0587 -4.52166 -6.01964 20 76 60
-6.85479 7.45699 9.96696 51 196 220
-3.86194 9.76584 -10.04 81 219 20
4.99639 9.9648 5.08465 169 220 170
-0.819527 -10 6.62785 113 20 185
9.84946 -5.85436 7.92386 220 60 199
-10.0481 3.01205 -6.10283 20 151 61
2.87214 -5.92966 9.72129 148 60 220
-8.40191 8.4888 -10.0618 35 204 20
1.32192 9.93462 -4.15601 133 220 76
1.26744 -9.76442 5.79888 133 20 179
9.80926 -1.48788 5.09212 220 103 171
-10.0562 0.20477 -0.92037 20 122 111
3.40337 -8.17577 10.0689 152 37 220
4.16797 2.99777 -10.0088 161 149 20
-5.54329 10.0337 6.20431 64 220 182
6.54429 -10.0558 5.72723 184 20 178
10.0265 -6.33177 6.87517 220 56 190
-9.79362 3.27277 -8.51262 20 152 34
-4.3872 -5.93879 10.0606 77 62 220
9.9953 -4.42786 -9.99006 218 75 20
8.32833 10.09 -7.56347 203 220 45
-9.75221 -9.93967 -0.929205 23 20 110
10.0512 -0.565065 4.35463 220 113 163
-10.0557 -3.15052 -8.18843 20 88 37
-2.967 -8.4748 10.052 89 34 220
7.93823 -6.7197 -9.83014 201 51 20
7.23124 9.99067 7.62951 191 220 195
7.19271 -9.79058 7.96593 190 20 200
10.0502 7.54996 7.91893 220 194 199
-9.78607 4.54587 6.59327 20 166 186
9.71612 8.20911 10.0187 218 201 220
7.20177 -2.12315 -9.90665 193 98 20
2.78611 9.90775 -2.93424 146 220 90
7.4196 -9.98127 -3.40574 192 20 86
10.0272 8.57188 -4.03655 220 205 79
-9.89091 9.57925 3.00333 20 214 152
5.44054 -5.95552 9.8514 175 59 220
-9.21149 -7.03913 -10.0229 29 49 20
7.34849 10.0434 -7.37157 194 220 45
0.779949 -9.93858 -4.79614 128 20 71
10.0066 -0.753411 -7.36503 220 112 47
-9.87831 -5.93728 -5.63136 20 60 63
-1.54817 4.50656 9.89381 102 165 220
-9.62408 7.53043 -9.93504 23 195 20
6.51583 9.82666 -0.417221 185 220 116
-0.649881 -10.0527 4.2215 112 20 163
10.0112 1.33779 7.66009 220 134 196
-10.0646 -6.69115 4.29129 20 53 164
9.34075 0.94968 9.94936 214 129 220
-7.7484 0.741851 -10.0284 42 126 20
-9.47809 10.1628 8.76179 24 220 206
7.21585 -9.95586 9.70219 192 20 215
10.0589 2.25854 -4.0285 220 142 79
-10.0007 -6.88821 -7.07028 20 51 49
4.80252 -6.61362 10.049 168 54 220
-8.64708 -9.99523 -10.0962 32 20 20
7.00567 10.1089 5.91781 191 220 179
-8.75139 -9.92795 1.0019 33 20 129
9.95844 7.779 -3.60357 220 197 83
-9.92352 8.80719 -4.92884 20 207 70
-5.33681 -0.598821 10.1806 66 114 220
-8.09345 -5.57412 -10.1496 38 64 20
2.43552 9.93281 8.70734 143 220 208
0.555196 -9.73906 -8.58772 123 20 35
10.0751 4.43298 -2.55382 220 163 94
-9.97862 -7.65955 3.90827 20 44 159
-1.95962 -4.67715 10.2006 100 73 220
-7.56269 8.38608 -9.96704 44 204 20
9.27087 9.91502 -0.889777 213 220 112
0.467931 -10.0364 -0.911474 123 20 109
9.89797 -9.50278 -7.85824 220 24 43
-9.91666 -7.55565 4.58374 20 44 167
9.68361 9.75479 9.92623 216 218 220
5.41467 2.17928 -9.97217 174 142 20
8.88109 9.90537 8.98768 209 220 208
-9.11082 -9.89858 -3.408 29 20 85
9.99943 -6.35118 2.63456 220 55 148
-10.0195 8.54342 3.68894 20 207 157
-6.16278 2.38191 10.0009 56 144 220
-9.68946 6.82564 -10.069 23 187 20
-5.87682 10.0427 3.64923 61 220 156
1.05405 -10.0067 8.16209 131 20 202
9.95268 -6.71361 8.98951 220 51 208
-10.0748 8.30631 8.18239 20 205 202
-2.44332 6.01598 10.0416 96 180 220
-5.90333 9.09868 -9.97881 62 209 20
-6.60624 10.0936 -2.5675 53 220 94
-5.06738 -10.0663 9.26057 69 20 211
9.97785 -2.52015 -3.71372 220 96 83
-9.98081 8.2684 -9.70923 20 203 22
-9.22719 -8.16986 9.84906 26 36 220
8.37602 -3.21184 -10.0106 202 88 20
-5.43962 9.99211 3.07554 65 220 149
-2.84043 -9.89705 -9.43266 92 20 25
9.91464 5.13679 -6.81415 220 171 52
-10.1335 -6.39819 -7.55695 20 56 46
7.28403 -4.3952 9.90771 192 75 220
-7.83665 4.62101 -10.1026 41 165 20
5.81281 10.0442 4.39136 179 220 164
6.34193 -9.92769 -1.49561 180 20 105
9.88343 0.197473 -8.06219 220 122 38
-9.9836 -2.22703 4.6081 20 98 165
5.30047 -4.92136 10.0887 173 71 220
4.16666 -0.162362 -10.1012 162 120 20
-1.13785 10.036 -4.29636 108 220 77
8.17991 -9.91417 -0.417222 200 20 115
9.88637 0.390881 -0.747612 220 122 111
-9.92022 3.92439 9.16767 20 159 210
2.20309 1.63004 10.0859 141 136 220
1.54229 0.765314 -9.94118 135 125 20
4.41378 10.0645 -7.28533 162 220 46
-6.52104 -10.0152 -7.51592 54 20 44
9.84037 5.4658 8.15016 220 175 200
-9.92192 6.34283 -3.08971 20 184 87
-1.4611 -2.02956 9.94988 106 100 220
9.71115 -0.439277 -10.0445 216 114 20
0.800265 10.1275 -8.77066 130 220 34
0.377289 -10.1078 7.97411 122 20 201
10.093 -2.85668 8.11586 220 90 201
-10.1054 8.11955 -9.53286 20 200 24
-7.00807 -0.356501 9.93338 50 116 220
7.39346 -6.27804 -9.98708 193 56 20
-3.08975 10.1265 -0.360241 88 220 117
7.14742 -10.0432 9.65814 191 20 217
9.92206 6.16188 -5.61411 220 181 65
-10.1368 3.10303 -1.04858 20 150 111
6.16061 1.11957 10.1597 182 129 220
4.48214 -6.94436 -9.98029 164 49 20
-3.55152 9.8915 -8.52704 85 220 33
-0.421208 -10.148 -2.08451 115 20 99
10.0279 -5.46475 -3.14126 220 65 87
-9.99544 1.46356 -5.8417 20 133 61
0.711277 0.606289 10.1265 126 126 220
-2.3497 -5.0121 -10.0271 95 69 20
-0.34713 10.0797 -5.84416 115 220 62
9.81337 -9.78205 0.303969 218 20 123
10.0644 -9.22804 -6.96656 220 29 48
-10.0496 -7.0108 7.38175 20 49 194
5.68327 3.94426 9.92402 176 159 220
3.1329 -9.36311 -9.90008 151 25 20
-6.31364 9.79143 -2.18931 56 220 97
6.37655 -9.94425 -9.97271 182 20 20
10.1124 0.876416 8.9057 220 127 209
-9.77495 4.67647 7.79344 20 165 197
-2.68351 8.22026 9.82779 92 201 220
7.11668 -2.67735 -9.95827 191 93 20
9.7597 9.92214 4.18116 217 220 162
2.16747 -10.0881 -3.47052 141 20 83
9.92302 -1.77551 0.689379 220 102 127
-9.9864 2.97364 -1.50858 20 150 106
7.92344 1.56022 9.99919 197 136 220
-7.69254 -9.1863 -9.91491 42 27 20
3.21594 9.91431 1.74198 151 220 137
-1.66258 -10.1035 8.11584 102 20 201
10.0599 -4.37149 -5.45611 220 75 66
-10.0289 -2.94384 -0.158509 20 88 118
-8.20972 2.57958 9.90256 37 145 220
1.14868 2.2469 -9.87971 130 143 20
4.8938 9.97386 -4.6113 169 220 73
4.07453 -9.9005 4.36902 162 20 163
10.0195 4.21382 -7.94483 220 161 43
-10.1571 5.81196 5.97466 20 179 179
6.35041 2.50041 10.062 183 143 220
6.06815 -8.52019 -10.0265 181 34 20
-9.55324 9.98357 7.58222 25 220 195
-2.17059 -10.0562 2.51377 96 20 144
10.1058 2.85911 5.41019 220 147 173
-9.99156 -3.32289 5.3247 20 85 173
-1.82806 3.70753 10.1582 101 157 220
3.86811 -4.89818 -10.1338 159 71 20
-2.05182 9.96192 0.463412 98 220 126
0.899137 -10.0591 7.35071 131 20 193
9.97913 -0.150119 5.95179 220 117 179
-9.88604 2.29079 -0.216489 20 142 117
-1.5344 -4.16815 9.87546 104 79 220
0.741618 -1.20027 -9.99487 125 107 20
9.90665 9.93406 0.355872 218 220 121
7.41394 -10.01 2.74799 193 20 148
9.92252 -5.25515 0.875821 220 68 129
-9.91067 1.17438 6.37787 20 131 183
6.15582 2.68599 10.0137 182 147 220
-0.893976 -8.14527 -10.0561 112 39 20
-0.826083 9.94763 7.84078 111 220 199
-5.66626 -9.8924 -6.70516 62 20 52
10.1294 0.549488 1.33804 220 125 132
-9.89972 -0.243048 -8.4362 20 118 35
-9.85398 7.88187 9.97638 20 199 220
8.70502 -8.56284 -10.103 206 34 20
-6.86054 9.82575 4.41099 50 220 165
-6.78213 -9.97543 1.99636 50 20 140
9.98354 -6.30421 -3.21366 220 57 86
-10.0203 3.18871 1.49298 20 151 135
6.64943 -8.77257 9.86902 186 32 220
8.65169 0.559107 -10.0441 205 125 20
8.6426 9.91021 -7.34138 205 220 46
0.822134 -10.2587 -0.472028 127 20 113
9.83211 -2.00395 7.69885 220 100 196
-10.2516 -3.17017 3.61852 20 87 154
2.04803 -9.13378 9.96818 140 27 220
3.23896 3.45887 -9.9343 151 152 20
-8.17651 9.95771 3.65758 39 220 157
-4.53217 -10.0559 5.7817 73 20 177
9.91182 -5.74954 -1.77714 220 62 103
-9.95052 -4.25705 9.44259 20 77 215
5.32265 9.63314 10.0525 174 217 220
1.45974 4.25006 -9.77208 133 161 20
-0.00525921 9.90957 5.14408 119 220 172
-6.21837 -9.88517 -2.54438 59 20 93
9.96985 9.64165 0.0075014 220 217 121
-10.0615 -8.61344 5.45509 20 33 174
-3.1517 5.19253 10.0067 89 170 220
1.88854 2.26283 -10.0102 138 143 20
3.98181 9.88867 -6.37497 161 220 55
3.13212 -10.0554 -8.1326 152 20 39
10.0032 -5.17964 0.63419 220 69 125
-10.0444 -3.11885 7.12777 20 88 192
-8.00797 7.46551 9.98835 37 193 220
0.82791 -9.86096 -9.97754 128 23 20
-9.11703 9.93642 -8.20543 28 220 38
6.53426 -10.0369 0.841068 184 20 129
9.97465 -2.35853 6.07332 220 96 180
-9.98874 -5.46572 0.249737 20 64 120
-5.91719 5.89473 10.1775 61 178 220
-5.03069 -3.08393 -10.0619 70 90 20
-8.71043 10.0227 -5.38282 32 220 65
-7.70973 -10.0638 -3.67566 42 20 83
10.0063 9.9193 4.37301 220 219 166
-9.97529 -6.98527 -4.00582 20 49 79
-4.34576 1.80926 9.99035 76 138 220
0.982186 -2.81349 -9.89302 130 92 20
7.9789 9.97008 4.25593 200 220 161
3.66583 -9.99588 -5.88509 156 20 61
10.1052 1.21502 -3.69695 220 131 82
-9.98591 4.52931 -5.24438 20 165 66
8.98093 3.3966 9.96744 210 152 220
-9.50484 -3.76849 -9.97915 22 83 20
-2.51151 9.86882 0.90325 94 220 128
4.53167 -10.0312 5.59197 164 20 176
9.85262 -7.08864 5.72403 220 49 176
-10.0662 -5.60175 8.73656 20 63 206
7.9525 2.54115 10.0501 197 145 220
-9.88459 3.62506 -10.0388 20 155 20
8.96965 9.78857 5.30819 210 220 171
-6.29994 -10.1537 -6.76137 55 20 51
10.0123 -9.16763 3.13081 220 26 152
-10.2241 -7.92624 -2.32535 20 41 97
7.96987 6.7444 9.98226 200 186 220
7.02456 -9.0032 -10.2176 189 31 20
2.86984 9.96012 -6.30132 147 220 56
9.03185 -9.95003 -0.321524 209 20 116
10.0628 -5.73137 -8.7153 220 62 32
-10.0355 -0.605335 -7.73411 20 113 42
0.508331 4.83959 9.86815 124 169 220
-8.1105 -6.13993 -9.95855 38 58 20
-8.41248 9.89499 -6.57946 35 220 55
6.41856 -9.90834 8.33664 183 20 201
10.0809 -1.37261 5.38333 220 105 175
-9.97435 -4.05276 -7.82999 20 80 42
4.13556 -7.08706 10.1547 161 48 220
8.06737 3.62894 -10.1465 201 156 20
-6.8391 9.86252 -0.0136793 51 220 120
-4.39843 -9.91419 -4.66071 74 20 72
10.0707 -2.15536 9.92267 220 99 219
-10.0367 7.94871 -2.92292 20 199 91
4.34495 8.4593 9.7636 163 204 220
-8.81719 -3.5137 -10.0889 30 84 20
-4.11795 9.92666 -3.30058 80 220 86
1.41316 -10.22 7.98664 132 20 198
9.95271 -6.61195 -5.71005 220 54 63
-9.90339 1.78494 0.0549436 20 137 120
-2.39032 3.64205 9.90179 96 157 220
0.455481 5.53874 -10.1043 123 174 20
-3.11747 10.1969 -2.66561 88 220 92
4.64479 -10.0568 5.1434 165 20 171
10.0036 -6.98905 -0.861286 220 48 111
-10.0723 -6.46064 7.11212 20 56 191
0.779971 -9.46941 9.96813 129 24 220
-9.66077 8.74439 -10.1311 22 207 20
4.50686 10.0222 -2.57389 165 220 93
-1.34982 -10.0434 -7.1374 105 20 47
9.91171 -3.25178 -4.76408 220 88 71
-10.0647 0.421918 -3.59941 20 123 84
-1.79402 -6.39621 9.99777 101 56 220
-1.44567 -2.56631 -10.1513 106 94 20
0.30462 9.80984 -4.2729 122 220 76
-2.14589 -9.95027 6.33295 99 20 182
10.2335 6.32302 -6.99896 220 183 49
-9.79837 -4.71816 -9.01683 20 72 31
-0.719467 -9.01133 9.94477 111 29 220
6.39966 -5.21882 -10.182 186 67 20
-4.51927 10.3014 8.70238 74 220 208
6.48477 -9.79145 1.56622 185 20 134
9.96702 2.23928 1.01408 220 141 129
-9.9513 -7.85062 -2.21167 20 39 96
-3.56524 -7.48388 9.93697 84 45 220
-0.861492 5.26147 -10.1756 112 171 20
-0.810557 10.0168 3.84531 110 220 157
-1.42482 -9.90608 5.92877 105 20 179
9.98724 -4.32163 -3.63955 220 77 84
-9.89621 -4.09646 9.11428 20 78 212
-8.13552 8.86412 10.0267 39 210 220
-7.84348 -9.76666 -9.87459 43 23 20
9.27101 9.84639 6.78028 212 220 188
6.12776 -9.98548 3.52638 181 20 156
9.92927 -2.88574 -5.14884 220 91 69
-9.958 -2.66303 5.8354 20 92 178
1.83807 -4.25885 9.96733 138 78 220
6.69768 5.86494 -10.0649 188 178 20
-0.383282 10.0773 1.38063 114 220 132
3.52372 -10.1022 -9.88523 155 20 20
10.0382 1.05337 3.35913 220 132 153
-9.84966 6.85191 7.55225 20 190 196
-4.83834 -9.85476 10.0387 72 21 220
-6.67508 -7.96026 -9.996 53 39 20
-9.74904 9.9969 2.47563 21 220 145
0.475679 -10.0604 -3.45164 124 20 84
10.098 3.76524 -8.92801 220 158 31
-9.94172 -5.46854 -5.06128 20 66 69
0.110285 4.11897 9.84504 121 161 220
-9.02309 -9.56818 -10.1866 29 25 20
1.28673 9.96298 -0.350286 133 220 116
-0.697897 -9.98884 7.84543 115 20 199
9.98274 -2.03338 -6.82567 220 99 51
-10.0565 -8.19428 6.05052 20 38 179
4.12475 -3.97876 9.75892 160 80 220
9.4522 -1.1309 -9.97962 213 109 20
2.31755 10.0648 -2.87435 140 220 90
-10.0463 -9.93806 -8.83606 20 20 32
10.0663 1.92781 1.86984 220 138 140
-9.94399 0.543272 -1.78518 20 126 104
-0.56474 -5.28307 10.0231 114 66 220
4.71109 7.02471 -10.0845 168 191 20
2.6823 9.9952 -6.712 147 220 53
-1.21352 -9.9043 0.284144 107 20 123
10.1034 -3.52881 1.47427 220 83 136
-9.97302 4.92145 -8.55715 20 168 35
-5.32678 8.42472 9.94942 66 203 220
-5.45213 0.550266 -9.99267 64 125 20
3.49387 9.91502 -8.6076 155 220 34
-7.30974 -10.0252 8.55661 46 20 205
10.0771 5.33686 -6.22366 220 172 58
-9.94357 -7.63016 0.52692 20 43 124
-3.79456 -4.19827 10.0043 81 78 220
-2.0362 3.96669 -10.0853 100 159 20
2.8679 10.1349 6.99686 149 220 190
1.81389 -10.0268 -8.72961 137 20 32
9.97535 -2.14144 0.906868 220 97 128
-10.0351 -7.17142 6.75274 20 47 187
-1.73059 -1.10042 9.8199 103 107 220
8.82973 -2.51183 -9.99483 208 94 20
-9.80229 9.98211 4.24865 22 220 161
3.17498 -9.98103 6.81746 150 20 188
10.0063 7.09235 2.6418 220 190 146
-10.1874 -3.41901 -7.18117 20 86 48
2.12627 -2.26257 9.9212 142 97 220
-1.89586 -6.27958 -9.9766 102 56 20
5.10505 9.94651 2.24222 172 220 141
-9.01687 -9.96017 -4.15606 28 20 76
10.0837 4.27471 -2.77045 220 163 92
-10.1912 3.92493 -3.56905 20 160 83
-9.53518 1.00742 10.0474 24 130 220
8.90831 -1.88274 -10.0064 209 99 20
-6.9534 10.1829 0.220284 48 220 122
-0.188889 -10.0569 -3.1931 118 20 86
9.93356 -2.45376 -6.8709 220 94 51
-10.0277 -6.42746 -3.49071 20 55 84
-4.35345 8.02191 10.0913 74 200 220
-2.31394 -2.78017 -10.1006 96 92 20
-6.41937 9.98323 6.59824 55 220 186
-3.06318 -9.92687 6.56072 90 20 184
9.95418 4.81576 -9.89966 220 169 21
-9.86157 2.30178 -0.401285 20 144 116
-7.45212 -5.54607 9.93508 45 64 220
1.41072 -3.77458 -10.0516 134 83 20
-9.41819 10.0198 -7.87858 26 220 42
1.31576 -10.1423 1.66013 132 20 135
9.93505 6.11416 4.67736 220 182 165
-9.94616 0.653151 1.82011 20 125 136
2.58504 6.51968 9.87281 145 186 220
-3.55917 -6.39052 -10.0494 84 56 20
-8.63437 9.8308 7.43742 33 220 194
-2.22395 -10.1179 -8.83722 98 20 31
9.94693 -9.51914 8.71812 220 25 206
-9.99236 7.17643 5.87084 20 193 178
-7.52864 -5.84828 10.1447 45 60 220
7.12746 -2.24236 -10.0068 190 96 20
6.88838 10.0807 9.29932 187 220 215
-3.82838 -10.1068 -2.44891 81 20 95
10.0569 3.82591 9.62109 220 158 216
-10.1259 9.9561 -2.02546 20 218 98
-5.71736 -2.86344 9.82507 62 89 220
7.10569 8.90542 -10.0802 192 210 20
-8.59554 10.1002 4.35188 34 220 165
7.59916 -10.0097 -1.33859 195 20 107
10.114 0.332829 -1.74259 220 123 100
-10.2395 -1.50109 6.75569 20 105 187
0.202383 6.99725 9.85182 121 190 220
-4.04807 1.367 -9.92935 80 134 20
-3.02273 9.97953 0.508863 89 220 125
0.61655 -10.1392 2.38974 126 20 143
10.1316 5.31305 -2.76971 220 172 93
-9.88111 -4.03655 -4.72582 20 80 72
5.80315 3.02415 10.1138 178 148 220
4.44835 5.33906 -10.0739 163 173 20
-1.0331 9.97007 -6.0234 109 220 60
-8.80822 -9.93766 -9.44396 32 20 25
10.0078 4.07234 3.00252 220 161 151
-9.9696 1.20782 -4.72412 20 133 71
-1.94427 -6.91656 9.96409 101 50 220
-9.26489 -6.93462 -9.89077 28 51 20
-1.71886 10.06 -7.72218 102 220 43
-1.89883 -10.0306 9.75818 101 20 215
9.95772 8.91506 -1.99899 220 209 99
-9.94204 7.91929 8.55475 20 199 204
6.12033 -7.6247 10.0427 180 44 220
6.72354 -5.302 -10.2037 187 68 20
4.82061 10.1758 -4.7361 169 220 70
-5.88555 -9.94242 -8.2476 61 20 37
9.85692 -6.00066 -2.90325 220 60 90
-10.067 1.93919 -8.45501 20 139 36
1.00099 -9.96869 9.9343 130 20 220
-3.55536 3.1232 -9.8724 82 150 20
-8.72443 10.0655 2.94508 32 220 148
-4.56464 -9.95822 2.53376 73 20 146
9.79082 -1.3498 -10.034 220 106 20
-9.85037 -0.501914 5.10535 20 115 169
4.84425 -3.90576 10.0906 169 81 220
5.09015 -6.74265 -9.8512 171 50 20
-7.23497 10.1526 0.829083 47 220 130
1.37539 -9.98427 -7.91978 132 20 41
9.79287 -1.13698 8.61111 220 108 207
-10.0549 -3.58496 -8.2923 20 84 35
4.09789 -8.71872 9.9958 161 31 220
5.12574 -5.85963 -10.0983 171 61 20
9.38996 9.93811 -6.04867 213 220 59
4.75216 -10.0442 6.78561 166 20 186
9.85421 8.82952 8.90147 220 209 210
-9.99146 0.102613 6.66206 20 121 185
4.4255 6.05784 10.0035 165 178 220
-4.85637 3.77178 -9.90078 71 157 20
-5.28609 10.0424 -0.149774 67 220 116
9.65123 -10.1085 -2.92707 214 20 90
9.94915 3.69305 10.0111 220 157 218
-9.91859 -9.03602 3.97793 20 29 159
0.37525 7.64034 9.9704 123 197 220
9.51237 -4.76065 -10.0413 214 71 20
4.33714 9.90954 8.45884 163 220 203
4.22045 -9.87726 3.55395 161 20 153
9.94543 3.95004 7.71379 220 158 196
-10.0749 -0.961459 -6.56231 20 109 55
9.90602 -9.74273 10.1751 218 22 220
-9.3207 2.09671 -10.0462 26 140 20
5.12138 9.82799 1.76423 171 220 136
7.58852 -10.0015 9.72323 196 20 216
9.91879 5.59399 -8.21891 220 176 38
-10.1026 -9.6192 -5.94942 20 25 62
0.192871 5.63996 10.1341 121 177 220
-2.82359 8.79781 -9.89539 90 208 20
-7.40313 10.0448 -9.52408 45 220 23
-2.85918 -9.9741 3.31588 90 20 152
9.97713 0.258277 3.7922 220 122 157
-10.065 8.88462 -2.90371 20 208 91
-6.2337 7.83031 10.0119 56 197 220
-7.43015 1.56884 -10.0604 45 135 20
9.48868 10.1832 0.713104 214 220 127
-8.45456 -10.053 -2.4191 35 20 93
9.98464 1.67235 5.29771 220 136 173
-9.83617 -8.26446 7.69567 20 39 197
-1.90941 7.90217 9.79625 99 199 220
1.81038 -9.00161 -10.084 138 29 20
-7.79621 9.95814 9.35463 40 220 214
-6.98534 -9.91982 -4.72791 50 20 72
9.85131 -1.55764 1.94461 220 104 139
-10.1183 2.30826 -6.46004 20 140 53
-8.31999 -5.93939 9.95113 37 57 220
2.85902 8.56107 -10.3689 147 205 20
-8.08643 9.99077 -7.24345 36 220 46
-8.2196 -10.1053 2.05655 38 20 141
10.0844 -6.82182 6.76689 220 53 187
-9.93817 2.00566 4.46219 20 139 165
4.56961 0.249693 9.88413 166 122 220
-3.80471 6.98638 -10.0055 83 189 20
-9.9401 10.1026 1.99185 20 220 140
-1.55723 -10.0487 8.4381 106 20 205
10.0684 -2.44535 4.09904 220 96 160
-9.90195 7.95127 8.81852 20 199 208
4.51315 -3.70883 10.1146 165 83 220
-0.506305 -9.43276 -9.97468 116 24 20
-4.94351 9.99426 -3.93446 71 220 80
6.73947 -9.79987 5.53197 186 20 175
9.85717 2.39274 3.41271 220 142 154
-9.96056 6.23728 5.50937 20 182 174
3.51147 4.99528 10.0907 154 170 220
9.36202 -5.04678 -10.2195 214 69 20
-0.142808 9.80524 4.9567 118 220 170
4.51889 -10.0428 1.90985 162 20 140
9.96014 -7.72418 -4.64508 220 42 74
-10.0555 -6.1122 -4.6164 20 59 74
-2.38811 0.119343 10.3783 96 122 220
7.8279 8.21417 -10.022 197 202 20
2.4949 9.991 -8.95636 145 220 29
2.10627 -9.87747 8.93583 141 20 209
10.0443 9.61114 2.13217 220 216 139
-9.91864 -6.50624 -9.23981 20 56 26
-8.4784 7.06431 10.0352 35 190 220
6.17697 7.69019 -10.004 181 194 20
8.03582 9.98336 -0.31531 200 220 115
-5.75949 -9.8066 -4.30491 62 20 74
9.98326 8.04727 4.56406 220 199 164
-10.1416 -0.824416 2.51201 20 110 145
-4.00837 -4.3857 9.99331 79 75 220
-0.404031 -2.95432 -10.0945 115 91 20
-5.5325 10.0252 3.67766 65 220 155
6.68196 -10.0468 -5.35851 186 20 67
10.0251 -0.822046 -7.10637 220 110 48
-9.78597 3.23441 2.51313 20 152 146
-2.09287 -5.77539 9.85105 98 63 220
2.39612 0.347454 -10.0014 143 123 20
-5.56649 9.9144 -3.93256 64 220 81
-0.333929 -10.0949 2.42999 116 20 144
9.99674 3.9178 7.54007 220 160 195
-10.0901 -9.11869 -4.47627 20 29 76
3.31353 -9.33721 9.91221 152 27 220
2.63995 -4.83812 -10.097 145 71 20
-9.4111 10.0221 2.80708 27 220 147
-8.15956 -10.091 -8.57744 37 20 32
9.96658 6.37613 3.10204 220 184 151
-9.92785 0.250316 5.76249 20 122 176
-3.27716 2.47792 9.79264 86 147 220
-8.03217 4.18696 -10.0547 39 162 20
-9.30074 9.95247 -8.99383 26 220 31
-3.09237 -9.89459 6.87837 89 20 189
9.90809 7.39077 9.32139 220 193 213
-9.93187 -4.12991 9.06404 20 78 211
-7.61758 -4.46566 9.896 42 77 220
2.20537 6.27457 -9.90261 139 183 20
1.93189 9.91286 -7.95835 139 220 40
4.23666 -9.85867 -6.73896 163 20 52
10.0566 3.51734 1.50984 220 154 135
-10.0503 2.53504 9.1622 20 144 212
-0.375391 3.27215 10.1168 115 152 220
-4.26434 6.34899 -10.1561 77 184 20
7.69357 9.92828 3.35486 199 220 155
-2.89545 -10.1228 -5.90669 92 20 62
9.98678 5.79796 9.18589 220 177 212
-9.83192 7.34727 -4.60204 20 192 73
9.73017 9.67315 9.86544 216 217 220
1.5623 -5.7576 -9.88012 135 64 20
-1.03807 9.88005 -2.76805 110 220 91
9.28212 -10.189 9.68647 211 20 217
9.78082 -0.220168 1.37316 220 117 133
-9.869 6.83905 -0.83132 20 188 110
-2.86693 -8.7764 10.0684 91 32 220
-5.27854 7.11818 -10.0005 67 190 20
2.86304 10.0969 -6.34238 149 220 58
-7.99163 -9.94918 1.84493 39 20 139
10.1052 5.7201 5.41867 220 177 173
-9.92468 1.87155 4.82655 20 139 167
-1.6165 3.87489 10.0831 102 159 220
-6.48065 -8.55154 -10.0552 56 35 20
7.08913 9.93365 4.97968 191 220 170
5.52588 -9.85032 -8.57079 175 20 33
9.9776 -8.18428 7.44688 220 37 195
-9.98034 8.59159 4.61928 20 204 166
-9.54032 4.41358 10.0072 25 163 220
-0.284348 -1.82205 -9.84093 117 100 20
6.92079 9.98592 -1.68525 188 220 103
2.28637 -9.93323 4.45959 142 20 163
10.0569 -9.60173 3.48913 220 24 154
-10.1312 -4.94571 -6.41865 20 70 54
-7.19831 2.08536 9.96901 48 139 220
6.03435 -7.5855 -9.97684 179 42 20
5.2187 9.99482 -7.82331 171 220 41
-9.73014 -10.0585 2.64577 20 20 147
9.74924 3.39901 8.03432 220 153 201
-9.9272 -7.05077 6.03206 20 49 181
-0.337291 -5.6358 10.0198 117 62 220
1.62869 2.40026 -10.1921 135 144 20
6.92799 9.80006 7.71086 189 220 198
9.74413 -9.98019 -0.989069 214 20 108
10.0577 1.65898 -0.972422 220 137 109
-9.99896 0.980615 -6.02223 20 131 60
-6.27231 0.881425 10.1107 57 128 220
7.19384 2.83386 -9.94571 191 148 20
4.72223 10.2052 -0.0727027 166 220 121
-4.73329 -10.0217 3.1798 72 20 152
10.0771 -8.05496 -4.34224 220 39 74
-10.0047 1.54571 8.81208 20 136 207
-2.9134 -6.439 10.1614 92 55 220
-7.25991 -9.29222 -10.0826 48 27 20
2.13277 9.93111 -6.21151 140 220 58
-7.61959 -9.88965 -0.683533 45 20 114
10.1858 -9.28258 -2.89183 220 28 90
-10.1359 4.19542 -1.31673 20 161 105
-7.15888 1.27938 10.2498 47 131 220
7.26428 -8.24202 -9.97116 192 38 20
2.04088 10.0744 -5.42421 139 220 66
-7.61601 -10.107 0.902251 41 20 130
10.1304 -2.12485 -8.82851 220 97 30
-9.99964 -3.29504 4.52703 20 87 165
9.53035 -8.53332 9.99326 213 34 220
6.15124 9.22325 -10.1084 180 211 20
-8.86757 9.81055 2.96854 31 220 149
5.66993 -9.94966 -5.34729 177 20 66
9.97394 8.60218 4.10672 220 204 160
-9.99816 -0.0179975 -5.65262 20 120 62
-3.61997 1.05976 9.99563 82 129 220
-7.49444 4.52322 -9.99769 45 165 20
6.5401 9.84606 0.382032 182 220 125
-1.21676 -9.99443 -7.1187 105 20 47
9.91836 -6.72726 -5.96057 220 50 59
-10.0011 6.44083 -4.23446 20 184 78
2.92451 -1.23484 10.0378 147 107 220
-3.53608 -9.75138 -9.98746 82 24 20
2.19093 10.0813 5.15557 143 220 172
-1.1892 -9.90217 2.06693 106 20 139
9.97312 0.50483 -3.0407 220 126 88
-10.1045 9.06531 -9.17614 20 211 28
2.44209 6.07353 10.0356 144 179 220
1.87098 9.55606 -9.81916 138 214 20
-1.03901 9.96167 -8.07952 110 220 38
-7.40369 -10.1991 -3.0241 47 20 89
9.96754 9.21994 2.77502 220 213 147
-10.0035 -7.91517 -1.17584 20 42 107
-6.30908 9.07324 10.0095 57 210 220
5.97605 2.99845 -10.1444 178 148 20
-3.76484 10.1339 0.13692 81 220 120
-8.37619 -10.0834 -9.47037 35 20 23
10.1796 0.48692 -6.97517 220 124 51
-10.2497 -8.99941 -0.110045 20 30 119
5.1865 -2.77898 9.9239 173 92 220
-3.51208 -9.59912 -9.81566 84 23 20
8.88169 9.92679 -6.98132 209 220 49
9.57827 -10.209 5.69751 216 20 176
9.99734 7.3721 2.70556 220 191 147
-9.91712 -7.78986 5.79554 20 43 178
-8.99081 1.47132 10.2054 29 135 220
6.01488 7.84061 -9.97357 180 199 20
-0.262654 9.85762 -2.15867 118 220 99
0.834718 -9.99237 -1.7975 127 20 102
9.94348 0.179161 6.53732 220 121 186
-10.1034 8.11499 1.49269 20 202 134
-8.16208 2.20313 10.0161 38 141 220
-6.47214 -9.20466 -9.93605 54 28 20
9.10798 9.99568 7.17134 208 220 191
9.63873 -10.0759 -7.32812 214 20 46
9.97801 -6.86885 2.40556 220 50 145
-10.0922 4.13032 -3.42237 20 161 86
0.0217296 -5.93545 9.85753 121 59 220
4.41235 -9.1465 -10.0981 163 29 20
-5.61809 9.95043 -7.88644 62 220 42
-4.79946 -9.98471 -4.3847 73 20 73
10.0328 -3.22774 -8.6173 220 88 34
-9.97716 -7.32221 -8.34682 20 46 35
-7.63697 0.419337 9.99908 45 124 220
-7.35279 6.20203 -10.0613 47 180 20
-0.585538 10.0421 7.50386 113 220 194
8.85386 -10.0822 0.530965 207 20 124
9.837 -8.79951 -9.99596 220 33 22
-9.90385 9.13524 -4.60397 20 212 74
-3.48272 -6.40735 9.83075 84 57 220
-3.11568 -8.25837 -9.94506 88 35 20
5.41207 9.84823 9.34596 175 220 213
-9.02771 -10.1745 0.361975 30 20 124
9.83658 8.97802 -1.58865 220 210 104
-9.92751 5.83539 -9.47803 20 177 23
4.91604 -2.07641 10.0106 170 97 220
5.78485 7.4859 -10.0346 179 195 20
-6.63643 10.0967 -8.6185 52 220 31
5.91275 -9.96759 -3.81496 178 20 80
10.0354 3.18091 -8.08197 220 151 38
-10.073 -7.27495 8.68138 20 46 206
-4.29255 -8.43849 9.93365 77 34 220
1.82565 2.90289 -9.88919 139 149 20
-8.46043 9.99118 -6.00383 35 220 59
5.99356 -9.84156 4.04117 180 20 160
9.95662 -9.2918 2.20334 220 26 144
-9.88444 9.17116 7.79501 20 211 198
-5.2667 3.29277 10.0097 67 152 220
0.222996 -0.690247 -9.91216 120 113 20
-2.12828 10.0266 -9.05492 97 220 27
-4.79227 -9.90493 -4.72943 73 20 72
9.86612 -6.30665 3.05156 220 57 150
-9.97702 10.0379 -2.17816 20 219 99
-9.59347 -4.89693 9.82734 24 72 220
1.06925 0.297352 -10.0074 130 121 20
-0.126442 9.96912 7.48793 120 220 194
-2.62608 -9.99094 -10.2003 93 20 21
9.96722 -7.45485 -8.4307 220 46 35
-9.95324 3.60347 -5.47259 20 156 66
-5.84218 3.02467 9.90842 60 150 220
6.17547 6.22692 -9.96602 182 182 20
3.79532 10.1197 0.702715 159 220 127
-8.31471 -9.98583 5.74465 37 20 177
10.0542 -7.40956 -9.8305 220 46 21
-10.0303 -3.20015 -2.84645 20 87 92
-0.920298 9.4006 9.97283 111 213 220
-6.11142 -5.98244 -10.0242 58 61 20
-4.01441 9.85035 8.12293 78 220 203
-6.65818 -10.0422 1.55428 54 20 135
9.887 4.66671 -9.48637 220 165 25
-10.0619 -8.11923 -7.50593 20 38 43
-6.30327 -1.57628 9.89473 55 103 220
-0.105503 3.07719 -10.0474 119 150 20
-4.42861 9.94584 9.88596 73 220 219
-0.642405 -9.89984 -0.180015 113 20 116
10.1325 -2.97858 -6.11026 220 89 57
-9.86015 -1.08781 9.60159 20 108 217
-1.22329 -4.68271 10.0337 108 71 220
-0.963399 4.13425 -10.0453 110 160 20
