ply
format ascii 1.0
element vertex 1289
property float x
property float y
property float z
property uchar red
property uchar green
property uchar blue
end_header
9.96224 -3.03645 9.87246 220 86 215
-9.88319 -6.82683 -6.93652 20 52 47
7.69978 7.43706 9.92434 197 194 220
8.16012 6.43386 -9.78389 204 183 20
7.90446 9.94372 -3.30011 203 220 90
1.79734 -10.1516 3.60959 136 20 157
10.1038 2.8598 0.761567 220 148 124
-10.1911 9.61398 5.30717 20 215 173
9.48028 1.83482 10.1692 211 135 220
0.83773 -0.0518263 -10.0429 127 118 20
6.74071 10.1526 -5.66775 184 220 65
3.35189 -10.0892 2.32367 149 20 143
9.82501 3.47665 0.633925 220 155 126
-9.82563 -3.0708 -5.24708 20 86 63
-2.61188 4.61514 10.0368 97 168 220
-5.5798 9.50766 -9.95847 66 214 20
9.07766 9.67918 -2.30748 210 220 94
-6.98345 -10.0061 4.37352 48 20 165
10.3233 2.57284 0.410493 220 145 124
-9.61702 3.3657 -8.26759 20 154 38
7.54419 -6.50063 10.0951 195 53 220
2.97952 4.56384 -10.2125 149 169 20
0.959529 9.84758 4.80632 130 220 166
-5.72929 -10.0688 -6.52036 63 20 57
9.73693 -5.83539 2.8657 220 61 150
-10.1276 -6.04024 -9.76227 20 57 20
-4.34619 -5.20852 10.1888 72 70 220
2.75308 7.62999 -9.9176 146 193 20
-2.44836 10.3162 0.546251 97 220 123
4.11444 -9.85085 0.0253422 159 20 121
9.85834 2.95061 4.41194 220 147 162
-9.99695 -8.70083 5.69388 20 29 173
-1.62915 7.01256 10.04 102 189 220
-5.30122 -5.1958 -10.22 65 66 20
-8.07094 9.97712 -7.91494 40 220 37
3.29159 -10.1696 -6.73978 157 20 51
10.1133 4.2161 1.34884 220 163 133
-9.94879 -0.138772 -7.16318 20 116 50
5.25603 0.647134 10.4519 172 127 220
-6.78576 -2.4165 -9.99771 51 100 20
-1.13833 9.9839 -4.07858 107 220 79
8.12337 -9.96157 0.0954289 202 20 124
9.80385 -5.58843 -8.11056 220 62 37
-9.87408 -0.819394 -8.41677 20 110 34
-7.22702 3.689 9.93597 45 156 220
-2.59851 6.40667 -10.1111 93 181 20
6.46359 10.1395 -3.85796 183 220 77
-4.13998 -10.1963 0.77339 79 20 130
10.0044 1.52438 -9.20282 220 134 31
-9.69368 2.47605 0.891481 20 145 128
6.78799 1.3026 9.78792 188 131 220
8.23424 -7.32906 -9.96892 204 47 20
-7.82258 10.5064 2.08641 40 220 138
4.47519 -10.2183 0.882605 165 20 131
10.0242 -7.40197 5.67951 220 44 176
-10.1988 3.95311 2.45832 20 158 141
-7.23372 -1.34252 9.98469 43 105 220
-1.91869 -3.56909 -10.1484 101 83 20
-5.98595 10.2302 -1.30635 59 220 109
-9.23621 -9.81276 4.99394 27 20 171
9.68024 -5.39763 -4.97643 220 68 69
-9.96376 -1.66376 4.74899 20 102 168
3.04263 0.778069 10.0501 149 126 220
-3.12439 -8.67931 -10.2612 90 34 20
9.54276 9.80659 3.43954 216 220 154
3.99198 -10.0582 -9.67917 164 20 24
10.4532 -7.52991 6.53223 220 45 186
-9.9743 -8.54819 1.46652 20 36 132
4.30018 -9.38379 10.0747 159 25 220
-7.51494 -0.509083 -9.97093 43 114 20
-8.48447 9.81781 9.30516 37 220 216
-9.05647 -10.3239 6.719 31 20 186
9.92395 -8.22337 -0.0125469 220 40 121
-10.1641 -8.6319 -6.52133 20 35 57
-2.38927 1.12015 9.98026 93 133 220
-1.4501 0.146738 -10.113 105 117 20
2.5243 10.1143 1.90941 146 220 140
4.51094 -10.2001 9.50355 165 20 212
10.0388 7.62103 -8.98567 220 198 27
-9.9907 5.12236 -2.28743 20 171 93
-9.78259 7.82832 10.0753 23 198 220
8.02921 8.82611 -10.0346 196 208 20
1.82584 10.0259 -5.20047 139 220 66
-4.10075 -10.2546 1.01033 79 20 132
10.0335 1.06621 1.37109 220 129 133
-9.9631 9.27576 -3.61123 20 211 83
-3.82506 4.62594 10.266 81 166 220
8.36435 9.80666 -9.9037 203 217 20
-7.99971 9.81837 -7.03511 41 220 45
-4.10242 -9.98512 -2.60714 82 20 91
10.4275 6.32353 4.20612 220 183 158
-9.99672 -1.33667 6.00528 20 102 179
-5.2773 8.52651 10.3863 67 207 220
1.8051 -2.62461 -10.2397 139 92 20
-1.0122 9.76293 -9.73903 110 220 21
-8.28413 -9.85895 7.0005 36 20 193
10.5554 -7.11923 6.55368 220 48 183
-10.0549 -3.15196 -5.72727 20 89 63
-6.51485 -7.6346 10.0709 55 45 220
-5.44623 -3.66494 -10.0531 63 83 20
-6.79986 9.90506 -0.724007 50 220 113
-0.642523 -10.0994 -5.9904 112 20 59
10.0113 -8.69641 9.22142 220 32 210
-10.0861 4.91306 -5.38862 20 167 65
-0.107751 -0.922341 9.92746 115 113 220
-1.06296 0.387974 -10.4038 107 123 20
-3.37433 10.2475 1.39546 88 220 133
-5.04234 -10.0906 -0.879123 71 20 109
10.1376 -1.97943 5.64092 220 98 175
-9.80829 -1.08246 -8.49315 20 108 35
-7.58747 -2.25043 10.1674 43 96 220
8.58953 0.660889 -9.95203 206 125 20
9.47102 10.1211 -8.75256 214 220 34
1.96887 -9.92985 2.28341 141 20 140
10.1471 1.43193 -2.08638 220 132 98
-9.81424 -2.30856 -8.52896 20 95 31
-0.567264 6.57123 9.81995 113 185 220
7.49093 -5.3077 -10.114 196 65 20
6.93041 10.0872 -1.9215 192 220 101
4.21571 -10.3047 -3.69722 162 20 80
9.5002 -1.76926 -5.91088 220 103 61
-9.93193 2.65061 9.59763 20 146 217
9.52068 -1.15234 9.99535 218 108 220
-0.192823 3.18064 -10.2294 119 152 20
0.202063 10.1543 5.37265 121 220 173
1.3235 -10.0814 0.143282 134 20 122
10.1231 6.52423 -9.05968 220 185 28
-9.97209 -1.57024 6.87359 20 100 186
-0.0266637 8.84777 10.141 121 212 220
0.200501 -1.78615 -10.095 123 100 20
-9.14044 9.8134 4.43751 27 220 160
-8.66993 -9.96401 -1.31351 30 20 106
9.94869 8.96273 6.19579 220 211 181
-9.95321 6.66994 1.29146 20 188 134
7.54529 -1.48281 9.91079 195 102 220
-1.1998 3.70014 -9.84278 107 158 20
-2.8813 9.88055 -7.703 90 220 45
-9.60737 -10.1346 0.00585747 20 20 121
10.0282 5.42963 6.93593 220 170 192
-10.0923 -9.56467 -5.00968 20 26 72
6.16094 -5.97948 9.88338 180 61 220
6.6267 -8.74141 -10.2059 184 32 20
8.11064 10.0869 7.18486 201 220 188
-7.75923 -9.94202 2.32103 40 20 142
10.1698 8.63228 1.91445 220 207 138
-9.7984 -3.79705 -5.16143 20 80 70
8.96902 3.78599 10.2251 210 159 220
-7.50284 -5.56436 -9.82529 44 64 20
8.70387 9.89548 -4.18094 206 220 77
7.75832 -9.99325 -7.02924 198 20 52
10.2557 6.69944 -4.12357 220 187 81
-10.2745 6.95611 -7.54361 20 193 48
-4.78236 -8.51885 9.89214 73 35 220
-2.26152 -2.39194 -10.3073 96 93 20
5.20521 9.93119 -7.71875 175 220 43
-1.26623 -9.9224 3.15313 106 20 152
10.1841 -3.14216 -3.9652 220 89 81
-9.71165 -5.46082 -8.46307 20 62 36
8.15637 -8.1428 10.0377 202 37 220
0.784302 1.09216 -9.8966 127 130 20
7.68883 10.0193 -0.977395 194 220 113
2.63747 -10.087 3.48575 146 20 153
9.95111 -0.816223 8.49783 220 111 206
-10.1378 -6.64172 -5.37189 20 53 68
3.72834 -8.55471 9.82959 160 32 220
2.09287 5.53815 -9.8024 139 173 20
-1.74294 10.051 4.36229 100 220 164
1.11871 -9.80606 6.21204 129 20 181
9.82213 -7.30786 6.73472 220 49 190
-9.82518 -3.67797 -9.80316 20 79 22
-1.44621 4.43887 10.4186 106 163 220
7.44761 3.39231 -9.89035 195 151 20
1.29707 10.0753 -8.03933 132 220 41
0.761543 -10.1132 -9.04033 125 20 27
10.1319 -8.7955 4.65053 220 33 165
-9.89768 -0.400453 -5.04167 20 115 71
1.2559 4.06787 9.9525 132 156 220
-0.630256 -4.78502 -10.0003 114 72 20
0.971057 10.0984 -2.43047 128 220 94
-3.72546 -9.98517 -1.57755 83 20 106
10.5876 -6.7957 -2.5282 220 49 94
-10.1426 10.1388 -7.70418 20 217 42
9.48233 -7.27173 9.76825 214 48 220
-9.82536 1.29111 -10.2336 21 131 20
0.222284 9.98136 -6.4641 122 220 53
7.3585 -9.86867 -9.51835 192 20 24
9.85189 0.390636 1.72909 220 123 137
-9.63123 -7.67868 -6.72193 20 39 50
0.129429 -8.54512 10.2431 124 35 220
2.77213 3.62156 -10.1197 149 157 20
9.93716 10.0981 -3.72905 218 220 81
-8.6727 -10.1096 1.48659 35 20 139
9.93702 -2.32426 6.92583 220 98 188
-9.60357 -9.71201 -4.52885 20 25 77
6.23022 -0.0415384 10.2262 183 120 220
3.55235 3.30807 -9.82676 157 155 20
8.30868 9.92634 5.19399 203 220 169
-7.78415 -10.5139 -3.68895 40 20 85
10.0861 6.44328 -5.08832 220 184 73
-9.87266 2.5135 -0.292025 20 145 117
3.02919 7.51338 10.0584 143 193 220
-6.18892 -6.07903 -10.0332 57 61 20
9.89184 10.2144 -6.76439 219 220 52
-1.77933 -10.0922 -9.60584 99 20 22
9.88625 -6.32838 1.78825 220 55 135
-9.71424 4.89674 9.72703 20 169 217
-0.32155 1.70726 10.0568 112 137 220
0.299734 0.47889 -9.80452 121 126 20
-1.05593 9.85136 -3.24991 112 220 86
-9.84801 -10.2032 1.47194 20 20 135
10.0369 3.50582 -8.26504 220 159 36
-9.4339 -4.82148 7.05333 20 69 191
3.70784 9.37872 10.1521 156 215 220
-9.41476 2.53014 -9.60454 25 144 20
0.939864 10.2617 1.92349 129 220 144
3.14059 -9.96386 8.13955 147 20 202
10.1197 -4.71706 -1.10679 220 74 110
-10.1389 -6.5503 -6.79368 20 53 52
1.87089 -3.425 9.96598 139 84 220
-7.01358 -3.21017 -10.2359 49 89 20
7.13753 9.88547 0.273491 190 220 117
5.68474 -10.0604 -7.26328 178 20 49
9.94923 -3.76081 7.36176 220 83 194
-10.2608 -2.63086 -6.10756 20 92 59
5.90449 7.48491 9.77113 179 193 220
-1.41728 0.568173 -10.0386 104 124 20
3.57208 10.1522 7.419 155 220 191
-6.67137 -10.0249 8.56883 54 20 208
10.1035 -6.21966 1.2287 220 56 134
-10.2427 2.3623 7.65391 20 144 195
-9.85543 1.98258 9.933 20 136 220
-1.03555 3.16469 -9.66847 112 151 20
4.05581 9.79015 7.84235 160 220 200
-7.71091 -9.88857 0.239833 42 20 122
9.60786 -2.06674 -3.90205 220 95 85
-9.87507 1.08646 -3.41823 20 132 82
-5.21012 -0.47617 9.84025 66 112 220
5.81662 -0.0446175 -10.0362 177 119 20
0.00454386 9.75905 -7.39001 121 220 43
-5.13819 -10.0087 8.63313 68 20 208
9.66926 -6.5031 2.69299 220 54 151
-9.97381 7.25606 -1.33168 20 192 107
-4.17782 1.45998 10.1744 79 135 220
-2.42075 -5.67407 -9.66622 96 65 20
-5.02414 9.88076 -5.55788 70 220 65
8.16715 -9.8885 -0.664487 200 20 113
9.92341 -2.14792 -5.72067 220 96 62
-9.64685 1.36299 -4.84795 20 131 70
9.30195 -8.89107 10.1527 210 32 220
-1.11759 7.24632 -9.74755 105 189 20
0.102356 10.5017 1.64801 124 220 133
-7.08448 -9.87306 5.91358 47 20 182
9.80351 0.627861 2.06327 220 125 142
-9.97066 -5.24745 -1.59242 20 71 104
-9.58636 -0.491577 9.67482 21 111 220
5.56899 -3.16466 -10.1108 173 90 20
3.42501 10.2951 -3.81537 152 220 82
-4.17276 -9.94484 3.49738 81 20 157
10.1721 3.98708 2.48227 220 158 145
-10.0184 4.224 -3.32302 20 162 86
7.87464 -5.71752 9.81606 194 63 220
7.20671 -3.94109 -10.1626 192 81 20
-2.05013 10.326 1.41078 98 220 132
4.46666 -10.1846 3.09019 162 20 149
10.0898 -2.96645 -7.64414 220 87 41
-9.73697 1.74943 -4.76576 20 136 71
3.05896 -8.39306 9.80902 147 38 220
1.94658 8.99502 -10.2914 137 213 20
6.16229 10.1595 6.78138 183 220 188
-1.37605 -10.1402 -1.40749 107 20 110
10.0054 -4.82171 3.40899 220 72 155
-9.95162 -8.61044 -3.77469 20 30 80
-2.6955 4.01464 9.70919 89 156 220
6.75783 2.52455 -10.2443 187 149 20
-5.41158 9.91487 4.26282 65 220 161
7.50326 -10.1161 -0.307266 196 20 117
10.2665 -3.27009 -5.44766 220 91 65
-9.96867 7.28423 -9.42222 20 188 23
-6.36931 0.0637527 10.0096 56 122 220
7.03887 2.19451 -9.94634 193 142 20
4.1702 9.82294 9.16405 162 220 211
-0.386153 -10.0945 -9.60963 116 20 23
10.1431 -7.34236 7.09575 220 46 191
-9.92056 2.74777 3.07744 20 148 149
-1.03308 6.30657 9.83284 108 184 220
-4.20785 0.308529 -10.0453 76 122 20
2.09664 10.2084 -0.872686 141 220 114
0.486695 -10.3502 7.4231 125 20 194
10.4519 -3.77223 8.1186 220 84 200
-10.0725 -6.83807 -2.87726 20 51 93
9.42826 0.904106 10.2932 217 131 220
-1.57432 3.73048 -10.2184 99 156 20
2.96372 10.4979 -0.836969 147 220 112
-8.61833 -9.59417 -9.19487 34 20 28
9.93546 6.1729 -0.540937 220 184 114
-9.93147 -9.37645 -5.99297 20 25 61
-2.55503 -3.27491 10.1403 95 88 220
-7.21316 8.22126 -9.95214 48 204 20
-8.95382 9.95494 -8.23924 29 220 39
9.89563 -9.88544 -1.94288 219 20 98
10.3281 4.77617 8.49279 220 167 206
-9.77266 -9.20239 9.16092 20 29 214
-7.80582 -7.04988 9.69922 41 46 220
-0.919562 5.38356 -9.92803 113 171 20
4.456 10.2423 -6.49349 162 220 54
-4.95184 -10.3066 1.24132 70 20 133
10.2221 3.64122 -3.75061 220 153 86
-10.3209 -8.35305 -7.85055 20 33 42
3.5051 0.773475 9.68894 155 129 220
-1.70621 7.54754 -10.1831 104 196 20
-8.6414 10.4476 6.22893 35 220 177
7.5558 -10.1863 5.80559 196 20 180
10.0079 -2.65847 -9.72483 220 92 21
-10.0118 -9.99236 -0.861393 20 24 115
9.07999 -5.46582 9.6157 210 65 220
-5.55084 -3.63283 -9.66224 64 82 20
-9.90322 10.0247 1.11105 23 220 132
-9.47065 -9.90585 -2.56734 25 20 95
10.5154 -9.36923 -1.4781 220 30 103
-9.88767 4.38019 -4.96197 20 163 70
3.10342 2.06652 9.6977 154 143 220
9.16666 -4.46297 -9.87514 213 79 20
-3.18024 9.83686 -8.65797 89 220 33
3.30042 -10.3942 2.53254 156 20 148
9.90938 9.72696 -6.25394 220 216 56
-9.7812 -2.81725 -8.98832 20 93 31
3.2188 -0.376288 9.89967 154 116 220
-6.42578 2.15172 -10.1295 53 143 20
-7.16443 10.2519 8.25513 49 220 198
4.33008 -10.0036 -5.11523 164 20 70
10.2771 -1.33532 2.32886 220 109 144
-9.90652 1.82076 -9.33449 20 137 27
-4.87038 -7.19864 10.4514 71 46 220
-2.69354 -3.1538 -9.64396 92 86 20
9.02163 9.82441 -3.28707 212 220 85
6.71157 -9.86144 7.99985 187 20 198
10.0591 1.89498 0.26501 220 135 125
-9.79635 7.76467 -4.1879 20 197 81
1.67195 8.40209 10.2831 136 203 220
-7.6812 8.03029 -9.7355 44 199 20
0.509453 10.3358 -8.07311 123 220 42
5.41822 -10.0584 9.7351 175 20 218
9.84669 -5.46706 6.94005 220 65 191
-9.99417 -1.5831 -5.93317 20 107 60
7.11726 -7.81532 10.0202 190 40 220
4.58455 -8.56182 -10.0669 166 34 20
-7.29341 10.0128 1.88457 47 220 138
6.53662 -9.5519 4.28238 186 20 161
10.2547 -0.821242 5.1857 220 112 171
-10.2636 7.94154 -4.02647 20 201 81
-7.35704 2.45443 10.1711 45 142 220
6.18544 -1.84381 -10.1071 183 103 20
5.87904 10.1426 -8.19212 178 220 39
8.4547 -9.72769 -7.48732 206 20 47
9.69591 1.39084 6.9799 220 134 192
-10.0072 9.51287 -9.56395 20 215 23
-9.70749 -1.30086 9.92305 24 108 220
-1.59167 -5.14757 -10.1984 103 69 20
0.780514 10.0126 -4.03866 129 220 79
6.32774 -10.1905 3.86417 184 20 163
9.91771 -7.05015 1.51635 220 50 138
-10.1908 5.24664 7.99401 20 172 199
-7.86879 -7.54606 10.1727 41 41 220
0.377728 7.30984 -9.99445 123 189 20
7.03689 10.0201 8.93541 191 220 209
-0.47352 -9.65276 4.56179 115 20 166
10.0477 -1.16953 2.59393 220 109 144
-10.0845 -5.76855 -4.9544 20 59 70
-3.77401 -1.89076 10.1216 83 98 220
5.40353 -4.09082 -9.95331 169 79 20
-7.16175 9.71725 4.87633 46 220 168
-2.60153 -9.90004 -5.64703 97 20 60
9.91462 -5.61861 -7.52153 220 67 43
-9.71547 9.44469 -6.55459 20 212 58
6.80954 -4.57214 10.0598 186 72 220
1.32853 -6.2394 -10.2636 131 54 20
-1.01299 9.81535 3.75493 111 220 161
1.33923 -10.0676 -7.42811 133 20 49
10.2707 -8.74329 4.47573 220 28 162
-9.95964 -4.67272 2.39755 20 72 146
-1.42402 3.90343 9.89361 104 158 220
-7.68043 2.31645 -10.0083 45 139 20
5.10755 9.7605 -1.83539 173 220 104
3.28193 -10.3952 0.835974 154 20 126
9.99316 4.64859 -5.94981 220 164 61
-9.68556 9.54032 -3.50831 20 215 84
-8.41535 -3.90615 9.9033 34 77 220
3.63397 -6.57336 -9.96008 157 56 20
9.48367 9.95798 4.37069 217 220 164
7.27233 -9.99618 5.45205 192 20 176
9.9762 4.46549 4.83051 220 167 168
-9.79877 -3.9536 9.99905 20 80 219
-8.59998 2.97016 9.94319 32 148 220
-6.01612 -8.23367 -10.0042 57 36 20
1.83275 10.1321 -7.73713 137 220 45
2.76479 -10.2175 -8.67791 149 20 28
9.96281 -5.41823 1.10271 220 67 129
-10.2569 -4.79347 -7.44946 20 70 43
5.94789 -2.3937 10.0724 176 95 220
-9.16293 -6.52706 -9.84837 30 54 20
-7.2932 10.0573 8.57887 45 220 203
9.02426 -10.2638 -3.18325 210 20 91
9.94482 -5.99478 -3.03945 220 58 91
-10.0255 3.18178 -4.70404 20 151 74
1.62106 6.39254 10.2109 134 181 220
-3.5541 -7.24841 -9.9804 86 48 20
9.44393 9.98743 -3.17763 213 220 89
-1.65918 -9.87526 -4.96039 102 20 66
10.3136 7.86279 -2.99947 220 197 90
-10.0123 -6.37916 0.648947 20 55 127
-4.8732 -9.68771 10.0251 74 20 220
1.4638 3.65697 -10.0615 138 156 20
-2.3131 9.55345 5.41635 93 220 176
-7.36449 -9.68938 2.69901 43 20 147
10.2791 -10.2701 -0.62169 220 20 117
-9.97328 5.89807 -8.00157 20 176 37
1.24924 4.80534 9.88098 129 168 220
6.25068 7.27355 -9.86529 180 192 20
-8.36051 10.4438 2.52308 38 220 146
6.43424 -10.1117 -8.76184 185 20 29
10.1585 -4.19365 5.86247 220 79 178
-10.0027 -0.0678051 3.30967 20 117 153
-5.84473 -7.96117 9.8455 60 38 220
-9.84461 2.0687 -10.105 20 140 20
-2.08511 9.71241 -0.0313726 101 220 122
2.32088 -9.85524 -4.0486 145 20 81
10.2932 -9.03631 1.90047 220 31 136
-9.95539 -3.57596 -9.5933 20 86 25
3.74252 2.98266 10.4054 157 149 220
-4.02172 -0.603343 -10.0453 78 114 20
-4.23678 9.89415 2.82485 77 220 148
7.31235 -10.133 -9.1855 193 20 27
9.76948 -5.81905 4.79934 220 63 169
-9.88315 -7.675 0.914191 20 43 128
-2.56586 6.56088 10.3665 96 185 220
9.40298 -8.6152 -9.82057 213 31 20
-2.40299 9.91237 -0.817699 94 220 110
7.93757 -9.65897 -7.46298 200 20 45
10.0513 7.90427 2.22537 220 199 138
-9.84638 -8.05522 7.09837 20 40 189
-0.317651 1.68345 10.0019 116 135 220
-8.49496 8.16508 -10.0443 31 203 20
4.71148 10.2111 4.23638 165 220 160
-3.34903 -9.98666 1.02544 85 20 131
10.0716 -8.23183 5.74491 220 39 179
-10.1062 -5.80934 7.71247 20 59 196
9.63743 -9.89878 10.1066 218 26 220
-8.25132 -2.16769 -9.79167 36 100 20
3.00396 9.90411 8.68832 148 220 205
0.263591 -10.3003 -6.25225 123 20 59
9.73194 9.01837 -2.42624 220 208 97
-10.1194 -2.83973 5.5753 20 93 177
8.33005 6.2506 9.89954 205 182 220
4.54115 7.84879 -10.1447 165 196 20
7.05651 9.72216 -3.39958 191 220 85
-6.76469 -10.3414 3.77467 53 20 157
10.2483 3.60761 7.74979 220 152 195
-10.2598 -5.53205 0.24051 20 63 121
-9.53556 6.22449 10.1103 21 179 220
2.68046 -5.55531 -10.0945 147 63 20
-8.81185 10.0703 -5.12902 31 220 73
-2.09829 -10.1121 0.113517 100 20 122
9.9719 -4.13182 -2.58311 220 83 89
-10.0682 3.14701 7.52046 20 152 195
-5.42265 -9.03386 10.2739 64 35 220
5.34618 7.08638 -9.9432 172 189 20
-8.33098 9.92142 1.20823 37 220 131
-6.83045 -9.93464 -3.96917 53 20 81
10.3158 -6.59819 8.66744 220 53 207
-10.0015 3.56682 0.0151381 20 155 118
3.78548 1.65796 9.99205 158 134 220
-4.4618 -4.25573 -10.0254 73 78 20
8.5851 9.81911 -2.12631 205 220 99
6.59768 -10.0138 -6.27289 185 20 58
9.70641 -6.16894 -0.0137947 220 59 123
-9.90988 -5.26039 3.04888 20 67 147
9.48564 -4.14378 10.0075 214 75 220
5.94841 0.420367 -9.94525 179 124 20
9.33284 10.0104 -5.49423 213 220 67
1.81093 -9.94192 -9.27915 135 20 25
10.1077 -7.01958 -1.33825 220 51 105
-10.2285 5.70284 6.02154 20 177 178
6.94429 -5.73129 10.1488 188 60 220
-3.90129 -2.47849 -9.90741 81 95 20
-0.541002 9.96904 -3.08167 114 220 91
0.426682 -10.1173 1.43733 125 20 132
9.89621 -4.64447 2.52794 220 73 144
-9.74977 7.84976 -5.40638 20 197 65
-9.1897 4.16448 10.118 30 162 220
4.93114 1.09644 -10.2202 170 132 20
-7.28186 9.62453 9.41058 47 220 215
0.145863 -9.95187 -2.63242 123 20 94
10.0831 2.91974 -4.8125 220 150 74
-10.0383 4.62741 3.00766 20 165 152
1.18935 -8.21179 10.0623 131 37 220
1.05683 -9.57061 -10.1916 127 21 20
-5.02067 9.83794 4.87926 71 220 169
-0.588351 -9.96338 7.88493 113 20 198
10.2311 1.3474 8.30859 220 131 200
-9.96556 -2.49375 -6.41125 20 95 54
9.5024 -8.68093 9.89709 214 35 220
-9.48455 0.673529 -10.0312 22 126 20
2.75902 10.2953 7.19612 149 220 191
-8.51798 -9.91173 10.2536 35 20 218
10.1547 -6.5529 1.875 220 57 137
-9.98459 0.0573288 7.11724 20 120 189
-5.87325 -4.98595 10.1025 60 66 220
-2.04305 5.7038 -10.0956 96 175 20
-5.30494 9.95667 -5.64785 67 220 62
-6.93539 -9.76626 9.03224 52 20 206
9.77814 7.46483 -8.98497 220 193 34
-10.0895 9.29928 -3.67765 20 210 85
3.92904 1.15418 10.353 157 129 220
-8.46425 -4.10167 -9.96291 35 80 20
0.652574 9.98587 2.76765 125 220 147
-9.75562 -9.7256 -3.0262 25 20 91
10.0006 9.23601 4.36045 220 212 166
-10.2981 -5.81836 0.188203 20 61 121
6.9433 3.66224 9.59336 189 152 220
-8.04412 -6.15184 -9.8613 35 57 20
-6.73269 10.0808 -1.48317 51 220 105
-1.91154 -10.1201 -9.45261 99 20 28
9.83409 0.354008 0.31678 220 125 124
-9.69238 1.55195 -0.115163 20 137 116
-1.96687 6.06368 9.99581 99 184 220
-6.17296 8.10613 -9.90876 58 197 20
0.335564 9.79274 -4.20321 123 220 77
0.235964 -10.3136 -4.92151 119 20 73
10.171 -2.55711 5.57847 220 95 174
-10.0628 -1.29311 -3.45153 20 105 87
6.76197 -3.71022 10.1239 188 82 220
1.82164 5.24658 -9.88827 135 174 20
-6.12443 10.056 -2.53757 60 220 96
-2.26886 -10.199 -4.02083 103 20 76
9.83815 4.0228 3.13894 220 160 151
-10.0599 -6.43804 8.50553 20 53 204
-8.73502 -2.4376 9.85625 32 94 220
0.151004 3.2688 -9.89266 120 153 20
-5.1213 10.2008 5.32923 69 220 173
-1.3864 -9.94477 -4.46005 106 20 73
9.99704 -4.14521 -9.09891 220 76 30
-9.98604 9.13353 6.82655 20 212 188
-4.36042 -0.548623 10.0186 73 115 220
-4.74693 3.97498 -10.3275 71 156 20
3.59085 9.83873 8.51178 160 220 202
-3.97643 -9.78079 -2.47429 81 20 96
10.5416 8.47558 -5.75379 220 206 61
-9.98875 5.79956 -7.77133 20 181 44
7.58113 6.63696 10.0579 196 186 220
5.37644 -9.89913 -10.1879 175 21 20
-9.53708 9.70789 4.62998 25 220 165
-4.93811 -9.84665 -8.95234 69 20 28
10.0159 0.837514 -2.79001 220 130 91
-10.0936 0.766959 5.70558 20 127 179
-7.73951 -8.53169 10.1612 43 34 220
8.35735 4.40132 -9.93816 205 165 20
-4.57513 10.0093 -9.11394 73 220 27
-2.9843 -9.85328 8.54548 92 20 205
9.95948 9.19914 -2.1669 220 210 97
-9.67936 -6.76101 -6.65228 20 55 55
1.9861 -6.89165 10.381 133 52 220
-7.57465 9.00537 -10.1323 43 211 20
-4.78558 9.99988 0.503541 72 220 124
-8.5736 -9.81806 6.92793 33 20 187
10.1416 -8.09409 7.80363 220 39 199
-10.3577 -9.13677 -7.22482 20 29 46
3.30221 -6.4807 10.0566 154 56 220
-5.18271 5.84684 -9.98846 65 178 20
-8.29976 9.89451 -4.89612 37 220 68
3.94749 -10.1758 -4.74376 161 20 70
10.0246 -6.89961 6.92942 220 50 189
-10.085 -8.19523 9.55957 20 38 217
1.8029 4.11007 10.1036 141 159 220
2.67052 -6.08585 -10.2738 148 55 20
3.95347 10.3096 -2.37514 154 220 97
8.49798 -9.95822 -3.22802 202 20 88
9.67265 -2.36507 -5.65095 220 98 58
-10.1236 -9.71849 6.17674 20 21 182
3.353 8.54917 10.0379 156 203 220
-6.86263 -8.60462 -9.68175 49 31 20
-3.52008 10.111 -0.555976 86 220 110
6.93151 -9.99734 2.2599 190 20 140
10.3838 7.03295 4.22867 220 192 161
-9.95593 -5.41859 -6.9682 20 68 49
6.70643 -0.00491101 9.99167 190 121 220
-6.01583 9.78215 -9.89012 62 217 20
2.67921 9.57201 -2.30145 147 220 96
-3.60117 -10.0461 -4.90151 85 20 71
10.0265 9.18717 4.01675 220 211 159
-9.95183 8.53671 6.66887 20 202 187
8.06779 -3.06451 10.0797 199 88 220
-0.0279693 5.71146 -9.99387 119 177 20
-0.463478 10.0574 -0.0797419 116 220 118
0.983521 -10.1298 7.69024 128 20 200
9.92367 -8.43265 -1.59271 220 36 105
-9.99291 4.44705 0.470429 20 161 126
3.3042 -7.50965 9.9009 151 45 220
3.00571 -1.38569 -9.87257 150 106 20
-3.56766 9.84466 9.29901 81 220 210
0.876113 -10.0201 9.5522 128 20 215
9.6776 -0.410528 -6.29888 220 116 56
-9.94699 5.17174 -7.94691 20 174 39
-2.08879 0.527975 9.90812 97 125 220
0.61305 -0.520613 -9.64595 125 111 20
-5.72055 9.86346 -1.05618 65 220 110
4.31246 -10.1048 -7.71228 158 20 43
9.65184 4.04776 9.4233 220 162 212
-10.1342 -5.39454 -1.79964 20 65 103
-7.57236 -4.43021 9.55156 43 76 220
8.32528 7.20821 -10.3982 207 191 20
-9.04077 10.0365 5.12479 29 220 167
-8.14674 -9.9771 -0.426939 39 20 114
9.99273 0.875982 8.73344 220 126 207
-10.1086 7.08771 7.42956 20 190 196
-7.51769 -0.153788 10.4322 41 121 220
8.58366 -2.19268 -9.90349 204 100 20
-4.45291 9.82284 -2.08392 76 220 96
0.197736 -10.1834 -4.05034 121 20 83
10.0502 7.53428 3.46507 220 195 155
-10.0867 -7.50104 -4.28746 20 43 74
1.81676 0.18048 9.89519 138 122 220
7.32802 4.97896 -9.92345 189 167 20
-3.28175 10.0151 -2.16921 84 220 101
-8.36548 -10.3737 8.8087 35 20 204
10.0022 -9.14203 8.51431 220 29 204
-10.0519 3.79579 3.09948 20 157 150
-0.482407 -1.0324 10.0771 117 110 220
2.03919 -1.95163 -10.3145 136 99 20
3.61435 10.099 2.66092 156 220 145
5.356 -9.73472 5.98717 171 20 181
9.98127 -5.05345 -6.5263 220 70 52
-10.058 -3.52068 -5.68096 20 88 63
4.21421 2.36341 10.0256 161 141 220
-4.05253 1.92131 -9.91205 77 140 20
-7.23207 9.82193 -0.759715 48 220 114
2.47065 -9.97903 0.936084 144 20 129
9.5734 -3.98198 10.0026 220 81 219
-9.80072 2.43728 1.99117 20 144 135
-8.69908 -6.72809 10.2477 30 51 220
-3.69829 0.394589 -9.88411 78 126 20
6.30263 9.91964 -2.14135 182 220 97
-8.48747 -9.48483 9.95884 32 20 218
9.89649 0.497795 4.12599 220 127 162
-9.84286 -6.4726 -5.81014 20 58 61
7.17299 8.55137 10.1157 191 206 220
0.45878 4.15183 -9.67325 123 162 20
5.90404 9.59412 7.07546 178 220 193
4.248 -10.3117 -3.40586 162 20 84
10.2468 -7.48143 -8.14753 220 47 40
-10.0513 5.11399 -9.3713 20 172 27
4.4416 -5.58565 9.8938 166 63 220
7.40104 6.50481 -9.51044 195 183 20
-7.51837 9.79636 3.21121 43 220 152
0.583784 -10.0328 -4.34718 127 20 79
9.94838 -4.40712 8.42947 220 76 201
-9.73678 -8.95945 6.47316 20 30 184
-1.52095 -5.97224 10.0366 106 60 220
-9.10434 2.21976 -9.53251 29 140 20
9.12799 9.97939 8.90736 215 220 208
-8.83081 -9.89378 -5.06487 32 20 68
9.97976 1.83534 7.91035 220 137 198
-10.123 9.13742 -9.4454 20 209 26
0.398334 5.5798 10.2416 124 176 220
-5.04526 3.18466 -10.078 68 150 20
-5.55716 10.0225 3.12955 64 220 154
-2.03971 -9.86719 -7.81008 100 20 40
9.71855 -5.69356 4.5373 220 63 165
-10.0692 8.30533 -0.116955 20 203 119
0.751227 -1.60566 9.93685 125 107 220
-6.9229 9.90776 -9.89262 50 216 20
3.2873 9.55257 2.80012 153 220 149
-1.83465 -10.0917 -6.7403 103 20 50
9.81676 -9.43967 8.80727 220 27 208
-9.77662 0.653259 -3.09942 20 124 87
-7.34807 9.59068 10.497 43 218 220
-7.79888 6.45356 -10.4987 39 184 20
-5.42945 9.81182 -2.61228 65 220 94
8.45753 -9.90784 -8.70362 203 20 30
10.1473 10.1545 -4.5266 220 219 74
-10.1442 -3.63519 5.90257 20 82 183
-1.63113 0.680495 9.87991 102 125 220
7.34888 -3.06463 -10.0205 196 89 20
1.21655 10.0444 9.30965 132 220 211
-6.6605 -10.2326 -2.60601 56 20 92
9.9635 3.08458 -8.64324 220 149 32
-9.67332 -5.66249 -3.79089 20 62 79
2.70214 -3.43315 9.91536 147 86 220
4.6711 3.45339 -10.0953 165 157 20
-1.11912 10.1165 -2.67314 108 220 96
8.4646 -10.1131 -6.28849 203 20 57
10.0984 3.8221 -6.94787 220 156 53
-10.1884 7.737 -5.01772 20 199 68
1.78619 -6.27185 10.0653 137 56 220
3.37902 -4.99832 -9.98795 153 70 20
9.52999 9.78258 6.8202 217 220 189
-2.22615 -9.95965 0.487758 100 20 124
10.0691 2.09829 -2.57006 220 141 96
-10.1779 4.5452 7.76078 20 165 194
-10.1319 5.99069 10.1201 20 179 220
5.09372 -2.38283 -9.90135 168 97 20
1.06416 9.98519 1.27538 132 220 132
1.95787 -10.0101 -1.13756 138 20 106
9.92843 5.10494 4.89641 220 173 167
-9.8063 9.2042 -1.01772 20 212 112
-9.49586 9.04533 10.0068 23 214 220
8.67755 1.29243 -10.0857 204 134 20
-3.90135 10.0625 -3.4535 77 220 84
2.66863 -9.86359 -5.37608 148 20 65
10.0736 1.16151 -0.617748 220 133 114
-9.93322 9.02244 -6.88643 20 210 53
-8.89239 5.76616 9.99518 30 178 220
2.32905 -7.75714 -10.0937 142 38 20
7.47652 10.1622 1.10937 192 220 130
-3.04902 -9.93416 -8.50911 85 20 33
9.47596 2.92808 -5.70877 220 148 57
-9.64306 -2.21729 -9.37237 20 97 27
-8.33759 4.39703 9.6201 35 165 220
5.99688 5.73694 -9.9057 178 175 20
-4.53457 10.0923 -5.17619 77 220 70
-1.33945 -10.1786 7.91478 106 20 198
10.1571 0.555309 2.22035 220 126 139
-10.1617 -2.21154 5.4348 20 97 176
3.31112 -8.62656 10.5741 157 31 220
-5.24456 -3.61762 -9.93527 69 82 20
7.87686 10.1055 4.31305 198 220 162
-4.70486 -9.85457 4.1069 70 20 159
10.369 -9.00945 -0.757451 220 29 109
-9.91242 -9.97276 -4.34008 20 20 79
7.79592 3.97905 9.72737 197 161 220
5.35387 -4.55632 -10.2471 174 73 20
6.57304 10.1533 2.8472 186 220 148
5.15416 -10.2958 3.87791 172 20 161
10.1473 -1.20837 4.81109 220 106 164
-9.91093 1.78608 -1.06166 20 138 112
-3.27481 -4.37963 9.81213 85 77 220
-0.862575 -9.24617 -9.87252 113 24 20
4.18124 10.1001 -2.61439 160 220 90
-9.02596 -9.70923 4.96426 29 20 168
9.94339 -1.72788 2.73134 220 103 149
-10.2347 1.21947 6.56914 20 128 185
-2.16611 8.3781 10.0869 97 201 220
0.362041 8.38322 -9.84864 126 202 20
-0.0543477 10.1202 4.63374 114 220 166
0.611141 -10.2167 -4.5045 126 20 75
9.72616 -8.70786 -7.7472 220 32 41
-9.9764 4.15504 -9.85842 20 162 20
-0.752332 -7.98754 10.0792 112 37 220
-4.16833 3.1452 -10.127 78 151 20
-2.32979 10.2536 -1.93083 96 220 96
2.74907 -9.88179 3.78216 147 20 158
10.2028 7.96863 -5.48449 220 197 67
-9.93029 -0.689929 3.37506 20 114 155
-1.85079 2.85833 10.34 102 149 220
9.6148 9.47983 -10.0905 218 215 20
-3.31342 9.69607 -1.80533 85 220 99
-7.72079 -9.98385 -1.77375 44 20 109
9.9925 -6.10385 -5.50419 220 58 61
-9.97118 -7.54507 -0.225614 20 43 118
-4.50536 6.96189 10.0163 77 188 220
5.71949 -2.34424 -10.0718 178 100 20
-7.33103 9.8707 -3.51823 46 220 84
0.411771 -10.0259 -0.231707 124 20 116
9.84193 -3.33031 -6.15725 220 87 54
-10.1076 1.20625 -8.07129 20 132 36
-0.605452 -1.19773 9.9794 112 107 220
0.284193 6.98164 -9.66321 126 193 20
-9.09762 10.0084 -2.60756 30 220 94
1.16677 -9.74826 -6.10077 131 20 60
10.1766 1.7888 6.19739 220 134 181
-10.076 -8.33336 -3.59543 20 38 86
5.13243 -4.83448 9.84215 172 68 220
-6.79453 9.12848 -10.0202 55 215 20
-8.37652 10.0577 -1.10989 38 220 107
-6.14804 -9.98936 9.62009 58 20 214
10.0412 1.84956 7.78946 220 134 197
-9.8938 -8.1565 0.887135 20 35 130
1.36444 0.56409 10.1739 132 125 220
1.28792 3.73037 -9.91148 129 160 20
3.67676 10.0369 8.80165 156 220 208
0.708169 -10.172 -3.57745 127 20 82
10.1689 -3.29004 -8.10048 220 85 39
-9.77743 2.84928 -9.19444 20 149 27
1.21754 1.27927 9.93282 129 131 220
-5.14345 0.369611 -10.023 71 128 20
-4.50469 9.79635 -4.85408 77 220 69
0.42354 -9.93573 -7.59794 125 20 44
9.91252 3.67526 -0.238844 220 157 117
-10.0228 -2.98991 -6.3497 20 88 59
-8.30411 -9.34984 9.89781 35 25 220
7.91715 5.38041 -10.1449 195 175 20
-0.953771 9.76004 -2.88263 109 220 90
6.47098 -9.95769 0.485981 187 20 123
9.98578 -2.04449 8.55334 220 100 206
-9.57476 7.4895 -3.39749 20 193 84
6.03821 2.46544 10.0275 177 146 220
3.18147 5.40343 -9.77314 148 173 20
-8.54725 9.50063 2.07419 34 220 137
3.33197 -9.83571 0.5974 151 20 130
10.0256 -6.8943 -9.26124 220 46 24
-10.2126 7.88112 5.04251 20 194 170
4.44308 -2.21308 9.9119 163 97 220
-4.57524 3.50866 -9.98477 77 156 20
0.574927 10.0238 -1.85903 124 220 102
8.84234 -10.3902 3.01133 211 20 152
9.59118 -8.89483 -6.05636 220 27 59
-10.0089 1.68207 6.16721 20 136 182
-1.78027 -8.17698 10.2563 100 35 220
7.187 -5.88004 -9.63174 191 60 20
-9.5388 10.2112 7.62485 25 220 195
-8.41644 -10.1333 6.86466 37 20 185
9.92816 -3.93589 -0.432482 220 81 116
-9.93146 -8.69888 2.97331 20 34 150
2.49432 -4.7388 9.68972 145 71 220
-1.16956 9.63581 -10.1309 106 218 20
6.64803 9.95001 -4.50047 186 220 76
-1.89766 -9.80567 1.19886 99 20 131
10.0518 -9.66171 -0.289579 220 21 117
-10.175 8.64451 -3.95155 20 207 77
-7.55372 -2.9294 10.4199 42 88 220
-7.89087 -7.98828 -9.88176 42 40 20
-2.48845 10.0031 1.23813 95 220 132
-5.52249 -10.036 4.83758 64 20 169
10.2209 6.84068 -0.170937 220 186 119
-10.0614 -4.78257 -0.528211 20 69 115
-9.79365 3.28753 10.1216 24 153 220
-9.09153 -0.998158 -9.82758 32 113 20
0.298597 9.83362 -9.33857 126 220 27
3.77331 -9.78647 4.66111 157 20 169
10.0496 0.447221 1.79348 220 124 138
-10.1408 -2.05553 9.22009 20 98 211
5.42149 0.502447 10.022 170 122 220
3.25709 3.93874 -10.1723 153 157 20
6.13712 10.1677 -7.19431 179 220 47
4.46657 -10.3271 -7.75558 164 20 42
9.82608 -4.68339 5.00017 220 74 168
-9.98431 -8.00079 4.9278 20 41 168
6.24182 -0.686877 9.88748 186 111 220
-9.5312 4.19106 -9.80539 26 162 20
-5.92334 9.82606 7.46008 60 220 192
3.72269 -9.58178 4.60667 154 20 166
9.8805 -0.116651 9.21682 220 120 212
-10.1211 -9.66047 -5.3401 20 24 68
9.25546 2.88304 9.73111 212 150 220
-8.46435 5.26649 -10.1583 37 173 20
-8.32991 9.8791 5.01032 35 220 169
-9.17567 -10.0819 7.2053 27 20 192
10.0927 -6.31102 5.4845 220 56 177
-10.3049 -8.16301 -5.43021 20 37 62
3.36028 1.58586 10.4097 153 132 220
-2.68791 2.89353 -9.9022 93 151 20
6.16879 10.0007 -8.46191 182 220 34
3.88014 -10.1572 -3.6694 162 20 82
10.0658 5.84784 -5.2232 220 176 64
-10.0604 4.18803 5.69078 20 162 177
-1.87163 -0.871392 9.63371 104 109 220
-1.19104 7.85279 -9.85844 111 197 20
-9.45445 9.86533 10.1771 26 220 218
-6.74813 -10.0648 -2.21167 53 20 98
10.05 3.55699 4.21077 220 155 160
-10.0312 1.2768 5.56813 20 132 171
-3.05428 -1.02961 10.1918 90 112 220
-5.37828 -5.28277 -10.2257 66 68 20
0.770665 9.80442 -9.2861 130 220 28
-4.09663 -10.283 -7.64301 79 20 41
10.2086 -5.40555 4.33554 220 63 162
-10.1415 -5.7466 1.65813 20 64 133
-1.64025 8.10588 10.0091 105 202 220
3.87168 -4.93425 -9.63167 156 69 20
-3.73192 9.97476 3.57089 80 220 158
3.90269 -9.84111 -3.1275 160 20 88
9.97735 9.30961 9.52361 220 211 211
-9.83575 -8.58068 -4.44327 20 28 78
0.279957 -8.97531 10.0938 123 30 220
-8.14618 8.8327 -10.2073 40 211 20
-4.48658 9.9831 -6.38117 70 220 56
-6.3172 -9.92988 5.29496 59 20 171
10.0727 -9.16529 1.94235 220 29 139
-9.88221 -0.699838 -2.47224 20 113 95
-3.08057 -7.0407 10.444 89 50 220
-6.3277 -8.14841 -9.69987 54 39 20
6.37905 9.99824 -7.28043 185 220 47
-6.82617 -10.1748 2.02631 52 20 140
10.1881 1.76896 2.99075 220 135 153
-9.97354 7.95997 -7.51315 20 201 45
1.87 9.79929 10.343 137 218 220
3.36255 -8.94706 -10.2494 155 32 20
4.03204 10.015 0.97491 158 220 129
-8.62391 -10.0064 8.26891 35 20 198
9.887 -2.22489 -9.93845 220 97 21
-10.0229 -2.01966 -7.61279 20 98 43
0.0469509 -6.72947 10.0013 121 54 220
-3.40626 -8.09284 -9.8924 86 41 20
1.86336 10.0545 -8.90718 139 220 33
3.05635 -9.8674 6.59806 153 20 183
10.3017 -9.95237 -6.00826 220 20 58
-9.7966 5.29391 1.0469 20 175 132
7.13699 1.36185 9.88123 188 136 220
-6.29488 -5.43512 -9.93294 56 66 20
-3.69164 10.0327 5.3896 83 220 174
2.96924 -10.2247 2.04447 151 20 137
9.93621 2.22286 5.54227 220 143 175
-9.8737 0.33848 6.06906 20 120 179
-2.08425 7.22636 9.98895 99 190 220
2.52258 3.6617 -10.0611 143 154 20
-1.42489 9.90636 6.38626 103 220 178
1.24369 -10.2056 -6.36123 134 20 56
9.94971 -9.57672 7.44014 220 21 195
-10.3155 5.72785 -2.78896 20 178 91
6.50789 -10.3141 9.75164 187 20 220
9.31065 1.11266 -10.1325 214 131 20
-6.21431 9.67168 -8.30162 56 220 33
-8.41329 -9.8883 -0.0567073 39 20 120
10.2231 7.5717 8.91465 220 193 211
-10.1061 -3.65916 -5.41618 20 82 68
7.26306 -8.95387 9.98056 190 31 220
-2.97619 -5.60068 -10.2265 87 65 20
3.09476 10.0489 -5.36681 149 220 64
6.14211 -9.96858 1.01211 179 20 130
10.3879 8.7396 7.50453 220 208 193
-10.2982 -6.88297 4.35069 20 52 161
-2.35107 -8.51705 10.1764 95 34 220
5.89933 0.46481 -10.0028 178 130 20
-2.65229 10.2022 -10.0563 92 220 21
-1.06187 -9.7718 -2.34613 105 20 99
9.81882 2.09481 1.49327 220 144 133
-9.70465 9.43967 4.20697 20 214 161
3.76676 5.69534 10.3166 156 177 220
8.35369 -8.1813 -10.1437 201 37 20
6.85399 10.1672 8.34481 187 220 205
6.15482 -10.0203 -0.317079 186 20 115
10.4154 -9.01527 0.281468 220 31 119
-10.0988 -7.80305 7.11106 20 43 191
-4.72412 -3.16431 9.87564 71 89 220
-5.65682 -3.69567 -9.842 64 80 20
-7.94552 9.43536 9.1986 43 220 214
-5.3369 -9.98579 5.24057 65 20 169
10.3506 -5.95756 8.72826 220 61 205
-10.1066 -3.65837 1.58898 20 83 133
9.45842 1.4542 10.1397 217 134 220
-3.74958 6.51879 -9.97924 79 184 20
2.89227 9.85741 -8.43768 153 220 33
-7.21302 -9.78949 2.87099 47 20 150
9.93738 -9.59705 7.09352 220 23 188
-10.1474 -1.19356 5.93035 20 109 181
0.690423 3.56735 9.71954 129 158 220
-5.06357 -3.81623 -9.83765 66 81 20
-7.28689 10.0986 9.62928 45 220 216
-1.79846 -10.2272 -6.78424 103 20 51
9.93295 -0.269629 1.34581 220 116 131
-9.95915 -1.27346 -8.22351 20 104 35
-3.93698 -7.29458 9.98338 80 50 220
-7.93948 1.53731 -10.4365 37 134 20
3.2389 10.1097 8.16984 153 220 201
1.61552 -10.2686 5.86137 137 20 181
10.5165 1.81214 -9.20778 220 135 26
-10.0518 -2.06648 -7.53653 20 94 45
-0.0172105 2.26657 9.9849 120 143 220
2.25301 -9.80629 -9.98559 142 24 20
-5.50728 9.97731 8.99958 66 220 214
1.7088 -10.2851 9.47059 134 20 211
9.98139 -9.70107 9.28126 220 23 213
-9.88976 -1.01734 9.54096 20 109 216
9.30219 -4.52968 9.96488 213 76 220
-5.78814 4.84554 -9.58921 63 167 20
-3.43079 9.65506 5.21805 84 220 173
6.27402 -10.068 6.92959 180 20 189
10.0655 9.06127 2.59679 220 212 145
-9.85853 8.06911 9.72633 20 201 215
-9.3772 9.49699 9.78502 24 214 220
6.45407 -7.00588 -9.85433 183 49 20
0.0188836 10.2923 -0.915967 117 220 108
6.83413 -9.5084 0.900425 186 20 125
9.86507 9.94329 -8.5855 220 216 35
-10.2991 -8.05235 -6.87537 20 38 56
-8.9212 -5.8878 9.79926 31 63 220
0.628211 -2.89492 -10.1916 128 90 20
9.33537 9.99275 -2.45704 214 220 92
9.79208 -10.0606 -1.58723 215 20 101
10.1355 5.19737 -9.71372 220 173 23
-10.3072 -7.82962 0.855516 20 45 127
-0.460805 -0.31558 10.0498 115 117 220
-4.85477 -1.88901 -10.036 65 100 20
-5.64884 9.81613 6.64238 62 220 188
2.73384 -10.0131 -7.11945 148 20 47
9.86471 -9.8658 5.35829 220 24 174
-9.86993 -7.40584 -3.41387 20 47 85
8.40488 -7.03686 10.0856 200 45 220
-7.9306 -1.21787 -10.2417 40 105 20
9.66606 10.0627 2.79886 214 220 149
-1.99874 -10.0919 -4.49054 97 20 73
10.5171 5.47159 7.3728 220 176 193
-9.93652 0.629879 4.23204 20 129 162
5.47497 -8.97734 9.83149 177 25 220
2.357 -8.124 -9.72183 141 40 20
-0.0472408 10.0731 1.09408 119 220 132
8.76477 -9.74232 4.0376 209 20 158
9.69137 -5.02125 -9.63698 220 70 23
-10.3102 0.556375 -2.81807 20 120 87
0.249506 -3.27587 10.1561 124 88 220
-0.256538 7.42029 -9.88867 117 195 20
8.87703 9.81294 5.02392 210 220 172
6.25147 -10.204 -0.517294 182 20 113
10.0747 -2.2106 1.87451 220 98 140
-9.98968 0.394358 2.10533 20 125 141
6.47476 -3.64403 9.92376 183 84 220
10.0407 -4.25882 -9.82101 219 79 20
0.402199 9.79695 -5.94953 122 220 59
5.62128 -10.1217 10.063 178 20 218
10.1278 2.83153 -6.94435 220 148 52
-9.89572 -6.23883 -5.94114 20 58 61
-6.2462 -6.72814 9.89684 60 53 220
5.96754 -0.996031 -9.95911 178 108 20
3.53745 10.0133 -0.648825 155 220 111
-4.38839 -10.0614 -4.91432 78 20 72
9.74026 -9.6164 5.75413 220 26 176
-10.0429 -3.61634 8.67382 20 84 204
-8.57505 -1.79648 9.47156 33 104 220
4.59838 6.73472 -9.97298 162 189 20
5.55136 9.87962 7.61324 174 220 193
-6.53953 -9.94536 -5.9664 52 20 59
10.2572 7.11081 -1.20583 220 191 107
-9.91434 -5.88047 1.90381 20 64 137
7.05654 -9.52777 9.82038 194 22 220
-6.02119 -6.62021 -10.1295 60 54 20
9.78478 9.99777 2.09881 218 220 140
2.45325 -9.98929 -8.66046 144 20 33
10.4558 0.266275 3.57918 220 123 154
-9.55289 5.88218 9.1943 20 175 212
10.0464 -7.91004 9.71057 218 43 220
6.82432 2.26598 -9.93993 186 143 20
6.72201 9.75323 -6.72237 189 220 53
9.56441 -10.1461 -3.26549 213 20 82
9.80578 3.30709 10.1166 220 153 219
-9.61927 -8.04109 -1.17254 20 35 108
-7.06466 -5.71692 9.74257 49 63 220
7.59748 -6.18089 -9.72513 198 57 20
-7.56813 10.2017 -0.615337 48 220 113
-5.84327 -10.0409 3.98024 58 20 156
9.72619 6.66451 2.58674 220 186 147
-9.99305 5.94269 -1.96928 20 177 97
3.32471 1.61847 10.0984 152 138 220
-5.93689 -1.53952 -10.2086 62 102 20
7.67706 10.4611 -8.2013 195 220 39
-3.71068 -10.0267 2.02343 79 20 138
10.0192 0.0712643 7.11749 220 118 189
-9.81607 0.145116 -5.38192 20 119 65
7.24573 -6.1788 10.039 188 63 220
-9.68992 -1.31499 -10.2184 20 108 20
0.215957 9.59582 -4.89566 119 220 70
2.17817 -10.0172 -5.18222 140 20 67
10.3913 -2.77136 4.53388 220 89 166
-9.89888 6.9635 1.97573 20 188 140
8.57515 9.37228 9.9402 206 215 220
4.61088 -4.71628 -10.5331 165 72 20
2.3148 9.90518 9.28417 141 220 212
-3.71334 -10.3387 1.28919 81 20 134
10.0925 -1.56189 -1.05511 220 103 112
-10.0047 10.0967 -7.89644 20 218 42
-4.0965 9.15393 10.025 78 208 220
-5.74199 -8.07403 -10.3168 63 38 20
5.89511 9.84643 6.71829 179 220 188
-1.76978 -9.82393 -2.5388 102 20 94
9.8502 0.234197 7.24249 220 120 193
-10.0198 5.77852 -7.92881 20 181 40
-5.57333 4.3576 10.0731 63 164 220
-0.667713 -7.55887 -10.0983 112 44 20
2.5872 9.77436 -5.49651 143 220 65
-7.20784 -9.92151 -7.64392 50 20 44
9.95442 -2.65724 8.98333 220 94 206
-10.0318 5.65177 -7.87501 20 183 39
-6.66518 3.73537 9.94782 54 154 220
-7.51065 -2.47485 -10.3791 45 90 20
-8.55126 9.88439 -3.67298 37 220 78
-3.21059 -9.53327 -4.37367 87 20 76
9.74848 -1.40649 0.113929 220 103 119
-10.1211 3.3777 -6.53261 20 153 55
4.81122 -7.3667 10.0567 171 42 220
5.78374 6.23362 -9.90404 176 182 20
4.48623 9.72433 3.35626 166 220 155
-2.95222 -9.86433 -5.73997 90 20 64
9.76876 7.9445 -0.450623 220 198 115
-9.85742 -2.10863 -7.41195 20 98 45
5.01674 1.16226 9.56308 171 129 220
6.69215 -9.54709 -10.0251 186 23 20
-9.95987 10.1413 6.15509 20 220 181
-4.07469 -9.58319 2.25457 75 20 139
10.5971 -7.02964 2.03623 220 51 137
-9.51994 5.39292 -4.48552 20 170 75
-7.80974 -0.961456 10.1007 37 110 220
-5.91042 -6.91617 -10.0654 59 49 20
-5.42133 10.01 4.90306 67 220 168
-7.69697 -9.78662 4.27284 44 20 160
9.63771 1.88128 6.3145 220 136 181
-10.1353 9.85049 -8.85606 20 218 34
8.56593 -3.6503 10.2217 203 81 220
0.946676 -6.66051 -10.413 128 52 20
-7.82655 9.83402 3.91002 41 220 159
-3.48029 -10.3045 -1.51343 81 20 106
10.0773 2.54653 1.45142 220 141 133
-9.95498 7.22727 5.39175 20 191 175
4.90545 -1.48642 9.83086 168 103 220
-8.65023 -0.36615 -9.76248 34 119 20
-5.23901 9.89284 5.83258 71 220 178
-6.99029 -9.93645 -3.5196 49 20 83
9.77909 -4.64958 5.88734 220 73 178
-10.0946 2.6437 -6.95464 20 150 51
-4.49862 5.951 10.0292 76 178 220
6.10636 8.30718 -9.87569 179 202 20
-9.20644 9.97549 5.02035 31 220 171
8.52275 -10.2627 -1.80228 206 20 105
9.85111 -2.26415 7.45314 220 100 193
-9.88973 1.17585 3.61694 20 132 157
-0.83055 -1.43966 10.3147 113 103 220
-9.2461 8.98688 -10.1012 28 211 20
-4.76117 9.8062 5.26247 73 220 173
5.20289 -9.82323 0.461974 170 20 126
9.94463 7.11197 6.84492 220 191 186
-9.66172 -0.915045 -8.63194 20 111 35
5.61893 -4.85344 9.83242 172 74 220
-1.41687 -5.95578 -10.2324 105 58 20
5.70471 10.1283 -6.21675 177 220 55
5.07512 -10.176 5.12421 173 20 171
10.1325 8.05545 -1.21305 220 204 111
-9.97164 -8.9359 -6.83536 20 28 52
-0.0769409 6.90269 9.93478 115 189 220
-4.57819 2.41896 -10.1277 72 143 20
6.81392 9.54436 -1.9862 187 220 101
1.24284 -10.2488 -2.38455 128 20 94
9.9867 9.18987 7.307 220 212 192
-9.72277 7.24863 5.09411 20 194 171
-1.87249 0.743419 10.019 102 124 220
2.44449 9.90331 -9.97236 147 218 20
-10.2333 9.77367 -1.01859 20 220 109
5.54428 -10.1633 -6.39561 176 20 56
10.0158 4.08961 7.22571 220 160 192
-10.0385 2.77196 7.5163 20 148 191
-0.120265 9.92736 10.023 117 216 220
-5.93924 0.795809 -9.89268 61 129 20
0.94872 10.0345 -5.11294 129 220 70
3.90985 -10.1101 -7.77709 157 20 44
10.2567 0.19516 -0.971412 220 124 108
-10.1328 -7.00494 -7.41943 20 47 46
-6.42921 7.36575 9.9766 57 189 220
-6.9089 -6.40242 -9.70907 48 59 20
-8.83207 9.53691 3.28417 36 220 153
2.10617 -10.1005 -5.62935 138 20 63
9.90931 1.66299 4.604 220 138 164
-10.3116 -8.45748 4.66295 20 37 164
-1.4284 7.1585 10.1582 105 192 220
-5.5862 -0.608735 -9.8491 63 115 20
4.76525 9.92246 3.25256 165 220 154
8.65022 -10.2163 -6.27806 209 20 53
9.75211 1.40361 -8.93268 220 132 30
-9.96391 3.82586 7.81661 20 158 198
-2.08632 -8.31004 9.79154 102 39 220
-1.90161 -0.864819 -10.0593 102 109 20
1.97219 10.4702 -4.52968 140 220 72
1.08023 -9.98168 0.385899 133 20 123
9.83402 4.44091 7.70073 220 161 196
-9.84884 3.06047 3.77561 20 152 158
-2.23143 -7.27976 10.2554 97 48 220
-4.05159 -5.04628 -10.231 78 67 20
9.14279 9.82377 6.51677 211 220 182
-6.96796 -9.93102 4.35126 48 20 165
10.1126 10.0759 7.32032 220 219 193
-9.92094 8.96784 -4.98538 20 210 72
-10.0155 -5.95673 9.74118 22 59 220
-0.335274 -0.342095 -9.87181 116 115 20
0.205775 10.1236 -4.16135 120 220 79
-9.28239 -9.56543 -9.46967 26 20 25
9.81782 3.56118 0.658971 220 153 125
-9.765 -5.90828 6.72973 20 58 184
-9.19469 -10.2092 9.97235 32 20 220
-6.01926 -1.51221 -9.92044 56 105 20
7.75021 9.9215 8.20777 199 220 203
1.10885 -9.86813 -3.64861 129 20 81
9.83549 3.6204 -1.456 220 156 104
-10.0768 -9.03352 -7.83657 20 33 40
-6.4251 -4.61002 10.058 56 75 220
-2.6865 1.70459 -10.1139 93 134 20
-6.89813 10.1771 -7.93171 53 220 41
-5.66524 -10.1694 -7.51571 66 20 42
10.029 -7.88268 2.61899 220 39 145
-10.1985 -2.26209 -1.55268 20 95 104
-4.67928 7.37463 10.3003 76 196 220
2.18019 5.30378 -9.8357 140 173 20
-1.13764 10.3431 -8.94016 111 220 28
-3.75261 -10.1171 -9.45202 85 20 28
10.1246 2.61293 -0.43025 220 142 114
-9.89288 -3.57572 -7.88645 20 80 41
9.51562 9.5134 9.71444 211 212 220
-5.71625 8.5621 -10.0284 60 207 20
9.60327 9.77103 2.35249 214 220 144
-8.74019 -10.2163 -6.04201 31 20 58
9.70671 -6.96713 9.83005 220 50 218
-10.1673 9.02962 -3.3568 20 210 84
2.93153 -1.30574 10.1222 151 108 220
-0.232226 -8.74769 -10.0429 121 33 20
0.666716 10.1008 -3.90925 123 220 77
-7.74356 -9.6928 -1.59494 42 20 104
10.2488 2.48965 -9.01499 220 143 32
-9.93227 -4.74192 -7.31612 20 73 43
4.07898 -4.72316 9.61923 160 71 220
0.952829 -9.37823 -9.96655 128 26 20
-1.67691 10.0598 1.11103 104 220 129
1.2179 -9.88067 4.33708 131 20 159
9.95104 6.35493 3.06429 220 181 151
-10.1443 -8.80971 -2.9271 20 31 91
-3.3768 9.75825 9.9536 84 219 220
2.64649 -9.35825 -10.1339 144 29 20
-2.73962 9.81609 4.6315 89 220 166
-2.3934 -9.99677 8.9377 97 20 210
9.81911 -9.78763 5.86183 220 22 180
-9.93703 -5.58309 -9.12637 20 64 29
0.795407 -1.1588 9.7382 127 109 220
8.02619 1.26334 -10.3213 198 133 20
6.49715 9.88874 4.42274 185 220 165
-2.64862 -9.9266 1.43955 91 20 136
10.1803 -6.06913 6.42288 220 59 176
-10.1052 2.83772 -2.287 20 146 98
-1.95868 -6.04561 9.62661 101 59 220
-4.13499 0.408217 -10.444 79 124 20
7.50614 9.75866 6.49143 195 220 188
8.08829 -10.3423 3.90749 198 20 153
9.9762 -7.11534 -7.16095 220 49 49
-9.80419 -9.23569 4.65585 20 25 169
-9.08005 -0.0510203 9.77254 25 118 220
-5.86719 0.159217 -9.76175 59 121 20
1.48684 9.92984 8.61962 137 220 205
8.80932 -9.97931 -6.36223 210 20 59
10.1125 8.01472 -7.28084 220 197 47
-10.1246 2.4278 8.56021 20 142 207
-7.88381 4.88437 10.3107 43 168 220
-3.3796 -4.50496 -9.65452 85 76 20
-0.880113 9.90738 -3.66656 108 220 78
5.91757 -9.87927 4.91437 179 20 167
10.1793 1.75853 9.43717 220 137 213
-9.79785 -3.1189 -1.23053 20 91 109
-1.54631 6.27752 9.86403 106 187 220
8.79323 -4.8507 -10.1086 205 73 20
-7.75173 9.82145 -2.05802 38 220 99
-2.41113 -9.78119 -5.49177 96 20 64
9.77597 -0.566083 0.652273 220 115 125
-9.65229 3.31304 5.52409 20 152 175
6.71307 0.395303 9.55614 189 121 220
8.95249 -3.71506 -9.85093 209 85 20
3.63359 10.0534 4.16152 151 220 162
-7.11013 -9.85937 2.20681 47 20 145
9.89214 -2.58137 -7.18731 220 94 49
-9.88272 -1.65593 -2.95759 20 102 90
7.57616 4.12042 10.2997 194 161 220
5.66043 5.38828 -10.0019 174 171 20
-4.00589 9.83755 -2.699 83 220 92
6.89489 -9.80766 5.36829 187 20 172
9.64155 0.410078 9.71062 220 125 217
-10.1112 1.11076 -2.8963 20 130 92
-0.62142 1.61538 9.87647 117 137 220
-4.86927 -6.95559 -10.2349 74 50 20
-1.37459 9.98768 -8.51542 106 220 37
1.85512 -10.2585 -7.97903 132 20 37
10.1863 0.0451918 -9.13902 220 114 30
-9.93828 7.7176 6.80397 20 199 188
8.62596 0.81391 9.81937 205 129 220
8.48853 -1.83178 -10.0444 203 101 20
-2.11537 9.97918 2.23953 99 220 143
5.13401 -10.0508 -0.456357 171 20 114
10.3176 -7.39001 -7.65992 220 45 42
-10.102 6.82291 9.48956 20 186 212
-7.53419 5.85902 9.98349 45 179 220
9.29506 0.384271 -10.4026 219 121 20
6.30719 10.2548 8.5355 181 220 204
-4.77216 -10.0564 -6.82182 72 20 55
10.1434 -0.386927 7.59277 220 115 197
-9.80634 6.05113 3.18175 20 181 151
-0.99586 9.26532 9.68827 111 209 220
-8.22459 -6.22096 -10.4999 40 61 20
7.12597 9.55406 4.5022 194 220 164
-2.57627 -10.4389 5.37573 92 20 174
10.1132 9.35984 4.11465 220 212 160
-9.65827 6.95947 -7.07592 20 186 49
-6.67374 -5.98167 9.86248 55 60 220
-7.72085 0.160906 -9.8519 45 119 20
2.51117 9.88833 -3.94805 144 220 80
-8.98902 -10.019 3.99591 28 20 161
10.0216 -3.75941 6.77218 220 81 188
-10.0359 9.62661 -0.711415 20 216 116
-6.44108 -9.0293 10.0595 50 30 220
4.00875 5.99247 -10.2808 161 181 20
5.2279 9.92623 -7.39769 175 220 43
